ply
format ascii 1.0
comment Created by Open3D
element vertex 1924
property double x
property double y
property double z
end_header
-28.0039 11.8694 43.4577
-12.0371 1.29133 68.2963
-16.5814 6.48482 64.5921
-11.8066 2.39586 67.2433
-11.4386 1.24649 68.8748
-16.0605 4.25741 65.7446
-11.5489 1.98603 68.2434
-15.2141 1.35293 64.717
-12.0862 1.31749 68.599
-17.7371 1.43334 63.1033
-24.6358 5.09386 59.1017
-9.16424 0.991051 68.7694
-23.9959 3.20397 60.0185
-18.5001 1.3115 64.6924
-18.1852 1.01421 64.4696
-10.3001 1.32371 70.7238
-9.60613 0.514423 70.6477
-5.85838 0.256181 71.095
-5.91717 0.282606 71.1782
-10.2987 -0.072107 70.3168
-9.92357 0.196154 70.0305
-5.89025 0.280064 71.1814
-6.39919 -0.172513 71.3401
-6.65398 0.238972 71.0956
-7.17307 0.869689 71.1987
-10.7688 1.61028 70.5383
-5.85794 0.287452 71.0893
-10.5897 1.53717 70.6853
-7.69763 0.113603 70.813
-7.72979 0.514406 70.8188
-10.2579 1.34673 69.5452
-11.5696 1.46111 68.7519
-11.8572 1.95794 68.6464
-12.1149 0.801229 68.1613
-12.1571 0.803973 68.148
-11.9845 0.75465 68.1674
-9.86822 1.92856 70.3682
-7.23832 -0.1183 70.9139
-6.84238 0.426749 71.0873
-6.76226 0.061811 71.0988
-14.6788 4.2189 66.1444
-11.1187 0.635989 68.869
-11.0904 1.49077 69.1297
-6.75702 0.583454 70.3817
-6.96187 0.303207 71.0504
-7.03559 -0.083753 70.8976
-6.7697 0.549366 70.4069
-24.7536 2.82057 56.6625
-23.3916 3.82999 61.0356
-11.1025 2.23174 69.2646
-10.2647 0.684557 69.4508
-9.65926 0.638393 69.27
-10.5782 1.22778 69.2861
-11.8215 1.96545 68.6788
-11.0477 1.56976 69.1527
-9.55644 0.365759 69.7771
-9.96502 0.463406 68.2911
-7.02815 0.400917 71.1106
-5.84549 0.205685 71.0891
-7.39006 0.805956 70.9327
-6.46326 0.032675 71.6036
-6.69973 0.3453 71.2466
-11.6418 1.89977 70.5083
-28.7008 0.760754 56.7132
-9.49304 1.38505 69.9975
-11.7284 3.07425 69.0883
-10.7691 1.19892 70.496
-10.2913 0.399749 68.056
-7.49073 0.767833 70.9564
-6.75252 0.163421 71.1004
-6.83297 0.178494 71.0823
-10.351 1.98233 70.3548
-7.18802 -0.059513 70.9202
-7.6441 0.047837 70.7962
-14.4633 35.3328 4.14027
-26.4362 24.2496 4.88921
-14.2245 24.2796 -30.8811
-26.4382 29.5814 9.92415
-7.04557 1.03033 70.9118
-7.05684 -0.229888 71.0112
-6.63725 0.228344 71.2138
-5.89607 0.191201 71.0932
-9.09754 1.11496 68.7126
-9.99966 1.27459 69.7341
-7.58944 1.27095 70.8522
-6.81418 0.736839 71.3117
-6.99071 0.718662 71.1554
-6.86012 0.376117 71.0801
-6.75742 0.187266 71.0162
-6.57863 0.36047 71.1297
-7.16663 0.076566 70.9359
-10.1356 0.599064 69.9285
-10.5835 0.974177 70.0868
-6.77258 0.14959 71.0557
-6.87152 0.059176 70.9957
-7.78364 0.041871 70.8053
-7.42558 0.112512 70.8847
-7.57334 0.112217 70.8393
-7.38329 0.089585 70.8799
-10.8897 1.47311 70.28
-9.70378 1.47881 69.9392
-12.3003 2.61595 68.5639
-6.44322 0.093237 71.403
-6.66256 0.826957 70.7991
-6.66577 0.317051 71.1108
-16.061 0.201439 70.4231
-6.80054 0.156842 71.0629
-7.80612 1.14949 70.9482
-11.7744 0.264138 69.9686
-12.4882 3.27963 68.5939
-8.75309 1.06165 69.1356
-9.63067 0.451352 68.5832
-11.4007 0.407258 68.4882
-10.4788 0.539693 69.1807
-10.4828 0.592944 69.1883
-10.2624 0.713722 69.4455
-9.94013 1.4948 68.7725
-9.72139 1.07878 69.8754
-11.0878 1.27923 69.0153
-5.84427 0.207761 71.0898
-7.17772 0.788531 71.0548
-6.28297 0.234783 71.4746
-8.20884 1.47005 70.6506
-10.1855 1.36483 70.6988
-10.4582 0.976459 70.827
-10.3569 0.081513 69.235
-10.5444 0.462799 70.1111
-10.0845 0.080235 69.6205
-10.579 0.134855 70.0464
-10.5198 1.33104 70.2425
-10.8601 0.031905 70.5733
-5.84295 0.308698 71.0624
-16.013 4.64972 65.2962
-12.9583 2.55932 66.541
-11.9113 1.116 68.2469
-11.9972 1.906 68.3348
-14.1105 4.4134 66.1271
-20.5036 5.30346 62.3817
-18.4832 5.09887 63.6555
-17.8253 4.26784 65.4319
-15.2024 2.79492 65.0744
-27.1701 5.76593 52.1318
-23.8624 6.42532 59.6615
-24.1158 4.02217 59.276
-15.6335 4.64678 65.8249
-27.5746 6.62 50.7855
-22.0691 4.02191 60.3035
-23.8995 3.43025 60.5502
-12.3915 1.40439 66.7552
-17.493 1.13742 64.9591
-14.1206 1.876 65.7264
-21.9476 3.74477 60.372
-22.0453 3.53582 60.2443
-22.0656 3.77805 60.2821
-21.7335 3.51924 60.5956
-21.7881 3.12205 60.3578
-27.9051 14.6722 40.4004
-21.6231 3.91862 62.6221
-15.1972 1.34494 64.8277
-21.0256 4.28508 62.9704
-25.2844 3.87729 60.0819
76.0397 72.6738 -86.088
85.8664 78.2304 -129.63
-20.5787 5.38111 62.7662
-18.7571 4.10604 64.7196
-24.4561 3.88112 59.1299
-22.2761 3.895 62.0932
-22.3655 3.60181 61.7763
-17.2896 2.50724 65.3217
-18.4497 3.09389 62.9607
-22.7343 5.58225 61.1716
-22.3619 3.59782 60.0225
-25.114 3.20832 59.9893
-25.4787 2.62559 57.0209
-21.2894 3.5175 60.8066
-23.9535 3.02489 61.4368
-14.7884 2.57308 67.0027
-14.9266 1.73865 66.7917
-14.7226 2.52114 67.0193
-22.3207 2.7664 62.8576
-22.0522 6.06158 61.1432
-17.7182 4.42287 64.7475
-22.6289 6.0732 61.5587
-22.6066 5.80403 61.4507
-30.9854 6.7351 39.7858
-27.7789 11.8709 47.6125
2.06909 39.5496 -45.3372
0.109077 41.1622 -14.81
-28.9321 11.2882 44.2017
-28.5876 12.4916 40.6545
12.1673 34.0364 -53.3973
16.2203 46.1266 -59.804
58.1693 87.8332 -60.2577
51.0403 108.501 -52.151
-22.9569 5.07555 60.872
-24.2721 5.69363 59.6043
-21.6725 5.81617 60.8953
39.9831 45.9466 -19.2314
99.6465 68.1626 -147.561
-18.5224 4.98693 64.4049
-14.6515 2.76323 65.4886
-21.4775 14.5505 43.1993
-23.2931 6.00392 60.4314
-22.3844 3.75213 62.6402
-13.7086 1.09793 65.6934
-16.0231 2.71916 66.2787
-18.1379 5.22463 65.5131
-16.2908 4.63824 65.1696
-20.6129 5.47579 62.5435
-21.7916 14.0401 44.3035
-28.3428 10.2373 46.3249
-25.9675 28.1742 21.5648
-17.4917 3.10189 65.4093
-19.0971 4.7908 63.1646
43.7367 52.0592 -105.823
104.647 53.7185 -152.491
-22.6138 3.27741 61.5988
-22.8929 3.15499 61.4667
-21.291 3.79943 60.8845
-23.7038 6.19574 59.9856
-21.7884 4.02737 63.082
-18.0787 3.53132 63.2742
-21.6318 3.23065 63.342
-20.4766 4.89447 63.0222
-24.1998 3.56704 59.4893
-10.1557 26.7198 -27.639
64.4684 105.425 -65.6834
37.6336 56.8371 -19.9183
-19.8692 4.52206 64.3242
-12.6488 2.24215 66.7198
-24.6297 6.43111 59.1931
-17.2353 1.04887 64.8962
-26.5282 4.40761 53.1923
-28.0447 7.03275 46.9181
-14.7859 4.33225 65.6749
-11.9775 1.8062 68.541
-12.005 1.00161 66.7138
-11.8984 1.07571 66.8566
-15.7045 1.47832 64.4175
-29.1418 3.65026 58.4013
-23.9968 5.22041 60.1245
-25.5986 3.39599 60.5343
-22.6666 4.28095 61.1733
-21.3057 3.69314 60.8463
-11.3317 1.36898 68.9518
-12.1936 1.17998 68.6358
-12.0283 2.33613 67.0281
-11.6815 1.4301 68.6864
-15.591 4.28408 65.8018
-12.7328 2.2836 66.6484
-15.3194 1.45816 64.7524
-27.8566 6.05526 50.6012
-28.1401 6.19163 50.0932
-11.937 0.725364 68.2216
-15.7942 4.08054 64.9796
-11.7241 1.87755 68.6523
-12.253 3.15535 68.6461
-10.3603 0.833061 69.3121
-11.9592 1.47877 68.5657
-14.9349 1.38714 65.233
-14.4518 4.18255 66.278
-12.0436 0.500293 68.1807
-24.3502 4.83273 59.1654
-24.285 4.52165 59.5925
-11.8221 0.598132 68.4801
-16.2457 4.22558 65.8124
-11.8594 0.592712 68.4677
-10.5654 1.56371 69.3549
-10.574 0.593324 69.1654
-9.95827 1.53258 68.7717
-11.7054 2.98694 68.382
-12.1372 1.93309 68.4917
-10.5974 1.70668 69.3728
-10.2623 0.73622 69.4603
-10.3371 0.709338 69.4192
-10.1101 1.32326 69.6613
-12.1264 3.6945 67.634
-10.5456 1.21301 69.2915
-11.1555 0.578181 68.9267
-12.1584 2.57851 68.0825
-21.6481 3.40622 60.4975
-24.5748 3.82814 58.9525
-24.9243 3.44051 58.762
-11.2001 1.31542 69.016
-11.7296 1.60602 68.7475
-11.3007 1.35808 68.9565
-12.2128 2.48573 68.5751
-19.0384 4.06852 64.6041
-19.6266 5.02672 64.3399
-18.4298 1.54609 64.3919
-16.837 3.07735 64.0389
-18.3966 3.96918 64.8334
-11.8458 0.593626 67.9838
-12.0367 1.54234 68.454
-28.9493 4.77119 50.1111
-25.3932 3.75763 58.0097
-24.5499 3.58589 58.7996
-24.3104 4.32404 59.1779
-11.1934 2.19245 67.5638
62.8297 101.275 -139.432
91.6076 76.1834 -93.7078
71.0237 79.5059 -135.474
71.7946 54.9726 -148.936
71.2131 79.2633 -135.968
-11.3415 1.32787 68.9231
-12.1584 1.95979 68.7011
-11.9684 1.13034 68.2126
-11.9786 1.41652 68.2637
-13.0358 2.33653 67.4025
-12.4901 2.09673 67.6813
-20.5707 5.37142 62.777
-14.7128 1.11226 65.0245
-10.9555 2.10989 67.7451
-14.3291 0.833492 65.2352
-7.2716 0.670657 71.1318
-7.32857 0.653563 71.0368
-7.45428 0.022476 70.8899
-7.26708 0.09151 70.8693
-24.2926 3.33293 58.9678
-24.916 3.84084 57.6438
-24.638 3.57555 58.9811
-6.32745 0.215796 71.3598
-25.4057 3.54261 54.3852
-27.7489 9.93233 50.7864
-26.095 3.57857 53.9981
-6.33964 0.131326 71.3532
-9.03326 -0.306516 70.3685
-6.63009 0.04871 71.1264
-11.5957 1.56962 68.9762
-11.5115 1.53708 68.993
-6.3967 0.423473 71.3321
-9.32542 -0.326473 70.3003
-6.57653 0.233711 71.1087
-7.75082 1.09835 70.9357
-5.80149 0.417567 71.2166
-6.07272 0.288886 71.5232
-6.35366 0.352141 71.5639
-6.785 0.270252 71.2813
-11.1628 1.82934 69.1173
-11.4294 1.71723 68.8728
-10.4339 0.860759 69.2538
-11.2433 1.86789 69.0981
-5.89767 0.349605 70.4791
-22.4387 4.13798 61.265
-24.1384 3.66825 59.91
-24.9154 4.05417 59.1858
-5.81621 0.423119 71.2266
-6.66145 0.230928 71.2207
-7.31781 -0.251657 70.9033
-13.2559 1.78777 70.6682
-6.89757 0.28942 71.3081
-9.78414 0.517409 68.2371
-11.8405 2.7264 69.0847
-5.61056 0.140806 70.5541
-5.67611 0.410545 71.1637
-6.85829 0.121116 71.5994
-6.1662 -0.156277 71.4389
-26.8413 4.52254 52.4763
-31.0152 5.94985 47.7954
-5.85863 0.209352 71.0941
-6.09119 0.187354 71.4753
-6.27198 0.12778 71.5097
-7.40522 1.14338 71.0725
-6.37317 -0.303634 71.5305
-6.45737 0.875676 70.8815
-7.23773 0.135354 70.9602
-7.32644 0.193891 70.9121
-7.16574 -0.054926 70.9205
-6.32338 0.25571 70.5178
-10.1396 1.59705 69.6335
-12.153 1.72226 68.428
-13.8462 3.91329 66.2146
-13.5038 2.59111 66.206
-13.0454 2.48311 66.5209
-13.9254 3.82692 66.9398
-11.9343 2.26056 67.1184
-5.7203 0.384682 71.3571
36.1409 50.1763 -19.3878
21.2346 44.2702 -17.2733
-6.2124 0.382027 71.5258
-5.86782 0.343327 71.0411
-7.01169 1.11753 70.7828
-6.56504 -0.284327 71.6512
-6.2184 0.141142 71.4739
-6.0522 0.147653 71.4858
-11.856 0.51883 67.8261
-29.2159 9.91526 46.8234
-28.1104 11.695 44.7112
-28.003 9.94801 48.3852
-8.65788 1.30794 69.4286
-10.6738 1.69582 69.3293
-11.4796 1.9368 68.9521
-12.6329 3.45653 68.4796
-7.12934 0.438648 70.9875
-7.22042 0.100223 70.8653
-5.80867 0.518952 70.5245
-5.56288 -0.029114 70.4495
-6.74233 0.099528 70.9988
-9.15839 1.98621 70.2191
48.1394 73.3089 -19.0596
34.6457 88.8369 -79.8521
-6.49077 -0.022268 71.2107
-27.4613 8.63006 50.8921
-12.0748 37.4802 3.86615
-17.4512 39.9752 -4.21159
-5.68027 0.414092 71.1457
-7.18718 0.80713 71.0676
-7.40012 0.215781 70.82
-5.62056 -0.11557 71.2884
-6.11756 -0.278368 71.4751
-6.82728 0.940062 71.0329
-7.08232 -0.31818 70.97
-6.50656 0.156405 71.5637
-23.9244 5.8116 57.6579
-24.6444 3.57676 58.9865
-24.3415 4.38294 59.0265
-5.73451 0.559523 71.1253
-6.05442 0.057744 71.4784
-6.04438 -0.08047 71.4499
-6.36764 0.482418 70.5784
-5.59323 0.024419 70.454
-6.8896 0.532199 71.1041
-6.79882 0.490178 71.0797
-6.69367 -0.264656 71.2744
-6.914 0.522469 71.0935
-6.43214 0.138303 71.4046
-6.34347 0.141978 71.4674
-6.88573 0.045733 71.0241
-7.3723 -0.137935 70.8588
-6.69949 0.314765 71.121
-7.20998 -0.261258 70.8915
-5.90809 0.412872 71.2281
-7.22884 0.347081 70.9652
-8.06048 1.43989 70.7004
-6.86751 0.066057 70.9761
-28.4786 15.8574 42.783
-5.61942 0.142958 70.552
-5.67588 0.362786 70.5035
-6.61187 0.712756 70.6047
-10.2515 0.449738 69.3932
-15.3777 4.33523 65.7006
-12.2238 0.629908 67.9865
-11.8004 1.81686 68.685
-12.2769 2.48856 68.5421
-16.1479 3.90773 65.7799
-5.3983 0.106012 70.4767
-5.34303 0.111739 70.4998
-5.38412 0.103559 70.48
-5.35745 0.364406 71.1247
-6.79681 0.076277 71.0152
-7.20375 0.107747 70.9504
-8.18833 0.847568 70.9206
-10.1571 -0.189971 69.5885
-7.21941 0.774059 70.1385
-9.5901 1.86868 70.5359
-10.533 0.781257 69.193
-5.59778 0.141222 70.5563
-8.68526 1.12831 69.1191
-8.55243 0.907322 69.1989
-8.67769 1.12181 69.1317
-8.68635 1.12699 69.1212
-8.80883 1.06581 69.0734
-8.82095 0.87588 68.8992
-8.79288 1.05314 69.0935
-7.00577 -0.27045 70.994
-5.91172 0.39221 71.087
-9.18086 0.710464 68.4862
-9.19175 0.710465 68.4752
-5.93618 0.258324 71.1128
-6.41127 0.600435 71.6639
-6.16634 0.473491 71.4905
-6.02616 0.055317 71.4567
-6.16981 0.437152 71.5399
-5.89089 0.263068 71.0952
-5.88822 0.290924 71.0935
-10.242 1.94891 70.3876
-6.64315 0.302749 71.1032
-11.7849 1.43562 68.5957
-11.3219 1.35088 68.9252
-8.60067 1.89999 70.3712
-10.2073 -0.190312 69.7468
-6.63334 0.328371 71.2302
-7.21195 0.608875 71.1874
-6.25156 0.274374 71.4886
-7.26719 0.088347 70.8693
-7.72689 -0.245781 70.6917
-5.51208 0.400043 71.1454
-6.00735 -0.151985 71.4121
-5.66294 0.421023 71.1197
-7.36942 0.51811 70.8121
-6.59439 0.328849 71.1255
2.04582 34.5156 -45.5844
-23.16 2.42052 59.2789
-22.6514 5.98709 60.595
-21.241 6.17272 63.1603
-22.197 5.79519 61.3834
-19.8217 4.02424 63.261
-9.11574 1.22363 68.7215
-5.81304 0.520258 71.0808
-5.76876 0.534828 71.1882
-6.3868 0.083315 71.5714
-6.2309 0.466594 71.5055
-5.65408 -0.079515 71.2632
-22.9415 3.66229 60.6788
-12.0015 1.40278 68.2691
-11.7445 2.12014 68.8632
-13.066 2.35274 66.4443
-14.0312 -0.187874 70.1956
-10.9788 0.938827 67.9935
-10.1923 -0.135619 70.2436
-9.54974 1.03648 70.6383
-9.81115 0.212724 69.6157
-11.355 1.67579 68.8791
-11.9384 0.582387 68.0542
98.7043 63.8685 -121.26
99.3625 59.6065 -154.721
108.372 56.144 -132.311
-5.88434 0.219687 71.0994
-1.81205 44.6708 -18.5239
-7.31307 40.2183 -11.0834
33.9534 27.6745 -5.55558
-2.96435 44.0603 -15.3173
0.113683 43.1894 -32.7326
20.8367 40.8575 6.66666
-8.2752 0.874773 69.5361
-8.80912 0.957303 68.8516
-28.34 7.25511 46.5404
-29.2106 15.3133 42.4181
-5.29201 0.23336 70.4743
-5.31004 0.162586 70.4627
-5.26696 0.10767 70.4825
-5.33873 0.071289 70.4588
-9.73599 0.578679 69.7205
-10.5541 0.700666 68.2129
-10.4509 0.272962 69.1289
-9.86145 1.39328 69.7225
-6.82805 0.251073 71.2786
-7.47239 0.927534 70.948
-7.11588 0.605224 71.1659
-6.48368 -0.142373 71.3877
-5.29817 0.223462 70.4222
-9.51455 0.226914 70.6005
-10.7126 0.051109 69.9189
-5.29636 0.224457 70.4719
-11.3837 1.24119 68.8293
-10.0419 0.606419 68.516
-11.742 1.70877 68.8146
-11.8585 2.20472 68.525
-12.0701 1.8594 68.3017
-15.1469 1.04954 64.8452
-14.0687 0.76393 65.6307
-24.5559 3.8402 58.9165
-12.5007 1.16959 66.1146
-12.5154 2.15557 66.839
-10.883 1.02265 68.3751
-12.1934 0.724638 68.0449
-30.3945 5.79352 48.4168
-26.9014 7.08043 53.3993
-10.9314 0.61654 68.9598
-10.9909 1.29855 69.125
-11.7796 1.9456 68.6976
86.8859 61.5958 -159.454
-1.13754 46.5041 -23.1353
0.630942 43.9433 -34.5254
24.2117 41.3379 5.31594
-16.7075 3.08795 64.1854
-17.0059 0.935744 65.0197
-27.1637 9.44393 51.8252
-21.1484 3.49065 60.9018
-26.3167 2.73243 57.5967
-24.3991 3.03117 58.8033
-21.9286 3.80294 60.437
-21.9329 3.71096 60.4061
-23.1426 3.2389 61.2596
-11.931 1.37345 68.2948
-14.1207 27.4937 -22.3888
1.69905 70.0153 -27.3477
16.8238 35.6775 -93.74
23.4802 51.3176 0.00795804
14.7568 42.4577 -57.1171
12.719 44.6973 -57.5242
17.6144 40.7544 -62.1039
-10.9149 0.600535 69.006
-11.7648 0.697758 68.5592
-22.2281 3.61993 60.0802
14.516 49.7261 -66.2235
-27.1249 6.46965 52.7833
-11.905 1.1213 68.0545
-20.9192 5.63861 61.9019
-21.0979 2.34324 63.2613
-19.0587 4.1019 64.6042
-18.73 2.96626 62.6577
-16.8676 3.01848 64.0261
-10.8876 1.28443 69.2096
-11.6316 1.56591 68.7685
-12.0341 0.636254 67.8725
-23.0892 3.60015 60.4718
-23.2315 3.80733 60.2891
-21.9869 3.43063 60.2485
-22.8922 3.79589 60.4768
-23.1915 3.78961 60.307
-11.9474 1.84496 68.2012
-28.3087 6.94294 51.2908
-26.8588 7.93494 52.6146
-10.854 1.27103 69.2136
-10.8917 1.49532 69.2266
-11.2926 1.1123 68.8401
-21.9208 2.42257 62.929
-21.8808 4.73051 63.2338
-19.9426 3.78153 61.9894
-11.0764 1.52749 69.1405
-11.2305 1.62823 69.0735
-11.9929 1.40298 68.2772
-11.8224 1.75957 68.6246
-11.955 1.29429 68.2675
-12.0118 1.85118 68.568
-17.4297 3.28623 63.7209
-13.3553 2.49729 66.3155
-26.8273 0.670339 57.8954
-11.7821 1.05934 66.928
-29.4111 13.4442 35.3066
-5.27458 33.513 -19.9234
4.32185 46.9886 -47.6743
-22.7495 2.98615 62.3829
-11.9148 2.26548 67.1362
-11.8753 1.75018 68.5555
-21.7723 4.0616 63.1516
-18.3984 3.38226 63.0383
-22.702 5.55982 61.2071
-17.7952 1.10626 64.8636
-19.3752 1.46493 64.0943
-20.9779 4.25752 63.0039
-28.8607 9.2051 38.2168
-12.0769 1.72201 68.3311
-13.9819 3.87846 66.9092
-11.8092 0.700879 68.5426
-11.9348 1.11169 68.4054
-11.9408 0.845731 68.3502
-14.0279 4.25885 66.4942
-16.1884 4.47597 65.391
-10.5435 1.404 67.8455
-10.9221 1.45381 68.4784
-12.7495 2.474 66.6798
-10.5657 1.47886 67.8258
-10.554 1.27078 67.7857
-15.8619 1.48683 64.299
-19.4524 4.75745 62.9292
12.3398 84.5463 -43.8823
-22.2847 5.28974 61.338
-12.0101 2.30971 68.6195
-12.3678 1.26824 67.5658
-11.7696 1.14693 67.9098
-14.6996 4.3397 66.1372
-11.9937 2.35108 68.6335
-11.3639 0.925627 68.9977
-11.5153 1.01986 68.9728
-12.1256 0.920682 68.1418
-11.8904 1.22499 68.3064
-11.9391 1.17732 68.2499
-12.0025 1.9799 68.1926
-14.4366 1.77041 65.5336
-14.1793 4.18599 66.3976
-11.6516 1.10113 67.9729
-12.1312 1.96538 68.0444
-12.913 2.35479 66.5889
21.605 43.8369 -72.7157
48.3879 53.3924 -36.8885
58.2721 42.7424 -127.19
25.3883 47.5664 -77.5607
13.0168 46.9407 -59.6358
46.6914 39.4365 -101.239
57.1867 36.6325 -113.773
-27.0904 6.4351 52.8352
41.5385 106.654 -106.557
-9.15438 1.16328 68.7391
-12.2608 3.49621 67.4665
-9.09483 1.2106 68.7466
-8.88276 0.96115 68.8908
-15.8346 3.12837 64.6136
-14.862 1.05949 66.6374
124.114 76.0448 -120.788
75.832 98.2204 -103.729
-11.3836 1.18528 68.9992
-11.2174 1.60028 69.0553
-11.317 1.32105 68.9277
56.2696 43.3633 -114.687
112.333 68.0785 -133.424
94.4652 63.8542 -144.644
90.6927 78.8997 -104.275
-13.4653 2.50785 66.2435
-8.65848 1.0895 69.1861
-8.6762 1.10334 69.1623
-8.6965 1.07723 69.1064
64.0419 35.5159 -35.4074
-12.1308 1.31661 67.3767
-11.9499 2.43097 67.1366
-11.9401 1.08908 68.3981
-18.2431 5.33004 64.8552
-11.931 1.1305 68.0465
-11.9576 0.748464 68.1887
-11.0865 0.708959 67.6668
-13.8007 3.87799 66.2514
-10.0095 1.28369 69.7472
-11.6131 0.576707 67.9193
-10.5259 0.592068 69.1788
-12.107 1.87645 68.5156
-15.0246 4.18522 66.1639
-11.8955 2.04182 68.6211
-15.4316 1.67393 64.7267
-11.5796 1.9797 68.8872
-23.0127 3.93468 61.1948
-24.1629 4.56246 59.2513
-22.8894 4.05812 60.6115
-22.9029 3.76729 60.5797
-21.2721 3.51024 60.831
-21.6167 3.08485 60.1902
-10.5851 1.37469 70.5485
-9.17005 1.78587 68.7113
-9.7817 1.21722 69.8627
-10.8669 0.917372 70.0931
-10.146 1.66304 70.2528
-10.2329 1.55228 69.6072
-10.5736 1.52159 70.2018
-16.8213 1.19216 63.61
-12.1285 1.93545 68.4767
-11.9955 0.84865 68.3323
-7.08167 0.574273 71.0319
-9.8741 -0.275606 69.9436
-10.3848 1.7931 70.2516
-10.7666 2.26876 70.2768
-11.1784 1.48013 70.4976
-10.7154 0.162329 69.9473
-7.72576 1.39332 70.6467
-6.00952 0.496524 70.4717
-6.29107 -0.155253 71.4757
-7.43987 1.07498 70.9058
-10.5597 1.25254 70.3077
-7.0109 0.424423 71.0981
-12.1148 1.56571 70.7113
-7.18118 -0.328109 70.9877
-5.90831 0.410798 71.2304
-8.4443 1.36549 70.7551
-5.84043 0.334304 70.4886
-5.6667 0.430449 71.1464
-5.57966 0.124858 70.5261
-27.6622 8.83881 49.1286
-30.9665 6.49962 37.6528
-27.7415 11.7198 44.4262
-14.2638 0.897729 65.18
-18.7 4.35726 64.0009
-17.4453 1.60519 63.3641
-7.05837 1.10518 70.7994
-6.02423 0.173713 71.462
-6.16833 -0.339072 71.5214
-6.02943 -0.126115 71.4302
-5.42277 0.106565 70.4755
-11.1222 -0.438427 69.3857
-7.13233 0.602594 71.0154
-10.2288 0.290118 70.7397
-13.019 2.32006 66.4857
-12.0172 0.554555 68.2404
-11.8636 0.631574 68.1189
-6.98419 -0.116457 71.0182
-13.8765 0.215426 70.3539
-6.9585 0.211228 71.1245
-16.3642 0.048948 70.3022
-11.9209 0.650649 68.4296
-12.0041 1.84444 68.5662
-13.9733 3.8651 66.9115
-12.1166 1.91841 68.4815
-9.5967 1.32498 69.9561
-12.1064 3.0344 68.7586
-11.2749 1.87091 69.0806
-11.8184 1.95917 68.6631
-6.8366 0.876716 71.1442
-5.57194 0.125013 70.5215
-12.2819 2.86717 68.7416
-11.4793 2.9702 69.1208
-10.4465 1.80777 68.4877
-6.44384 -0.13272 71.3689
-13.8331 0.111755 70.2328
-6.852 0.349918 71.0714
-6.99862 0.678676 71.1326
-6.60983 0.156732 71.1835
-6.58942 0.309453 71.1216
-6.89029 0.219123 71.0038
-7.38873 0.823159 70.9477
-12.2591 2.79056 68.7337
-8.30791 0.899828 69.5012
-12.0431 1.80656 68.5437
-12.7132 2.27576 66.6629
-10.8936 1.27296 69.164
-5.62801 -0.010827 71.2471
-18.4753 2.68377 62.7816
-22.1457 3.47384 63.0196
-20.2952 5.2179 62.8087
-21.3508 4.45328 64.0218
-21.4508 3.47992 63.7376
-21.1367 3.5393 60.9382
-21.38 3.52934 60.7401
-21.551 3.87385 60.7953
-23.2997 4.04681 61.1515
-21.3086 3.52427 60.8818
-31.1686 10.9957 36.6319
-28.4389 12.3294 40.964
-20.5625 3.35429 61.3036
-22.0775 3.7827 62.5191
-20.0521 2.58082 61.6133
-24.8353 2.56337 57.6184
-23.154 2.84578 62.0654
-19.8143 4.99751 62.5134
-17.0431 3.08996 63.8841
-16.7769 2.96538 64.0873
-17.7899 3.00788 65.2054
-16.8468 3.0842 64.0326
-17.7684 3.00009 65.2131
-17.7607 2.99889 65.2139
-21.9642 3.28557 63.0358
-20.4818 4.2386 62.9647
-23.7734 6.16122 59.6763
-22.1498 3.22477 62.9351
-25.2988 3.0932 60.7166
-25.2307 3.22169 60.6637
-23.4785 1.51855 61.9234
-22.1497 5.80639 61.4103
-23.9443 4.07234 62.0752
-19.8935 3.78241 62.17
-19.1103 4.03397 64.5726
-21.2334 2.90181 60.7801
-21.2347 2.94784 60.7827
-24.9226 3.50485 59.4377
-24.2797 3.36395 59.8025
-21.3623 5.07119 63.8426
-17.518 3.11733 65.4004
-19.2001 5.28459 63.2177
-16.9627 1.96779 65.3557
-21.9209 4.42377 63.3712
-17.4694 2.57929 65.3127
-24.4369 2.01429 60.7239
-20.5832 3.62944 61.3694
-20.5238 3.94547 61.5727
-20.4344 3.07613 61.3809
-20.5545 4.2881 61.7418
-24.5015 3.54759 60.1889
-23.0084 3.69019 60.8836
-23.0078 3.68928 60.8919
-24.5003 3.28744 59.8451
-22.0272 3.40561 60.2296
-23.3373 3.51313 60.9223
-23.0909 3.76379 61.0931
-21.3099 3.20215 59.7883
-22.3214 3.94555 61.7814
-21.6352 4.43876 60.9148
-43.2606 338.511 -475.992
103.166 96.3798 -506.94
-20.3641 3.6187 61.6204
-18.0852 3.55067 63.273
27.3237 23.8061 -4.10187
25.5873 38.6749 -3.50553
-20.4501 3.10742 61.4066
-16.9353 3.02891 63.9726
-18.0716 1.93834 64.7712
-25.3312 2.66951 57.8577
-22.0425 3.78178 62.8422
-19.5186 1.75258 64.2629
-20.5139 4.26474 62.9566
-21.6466 2.64163 63.1923
-18.8897 3.56014 62.6653
-22.1933 3.40432 62.9423
-22.3647 3.10434 62.6515
-20.0102 2.66139 61.7249
-21.6633 3.7438 63.7263
-20.0059 2.80374 61.7564
-16.8778 3.03019 64.0097
-19.8696 5.03717 62.4826
-22.9497 2.28478 62.075
-26.0276 3.9837 58.3629
-20.1641 2.7232 61.607
-20.5161 4.02764 61.7238
-24.2529 4.5775 59.3236
-24.3829 3.29988 59.0771
-16.8685 3.02765 64.0112
-14.2962 51.1329 -27.9278
-19.8329 30.6558 0.515259
-21.7664 4.35035 62.5135
-18.2174 2.69581 62.9748
-19.094 3.61595 62.6025
68.7333 88.0007 -158.839
74.381 95.3045 -154.88
69.5505 100.27 -153.989
91.0912 68.3184 -217.809
69.5857 88.902 -161.44
-28.1609 12.014 42.6852
-29.4181 11.4757 39.852
-24.269 4.89316 59.3605
-17.9814 2.14292 63.0268
-18.8461 3.28031 62.897
36.5821 70.8867 -101.399
122.514 74.5287 -107.428
-24.8216 3.82897 58.7295
-24.441 2.49484 61.1057
-23.4134 27.708 9.65055
-28.3439 24.375 14.4369
-17.1076 2.93682 63.7903
-18.3776 2.17029 64.6161
-16.8229 2.91479 63.9839
-25.3882 2.08724 60.3536
-21.6304 2.90032 60.4665
-21.8176 5.83749 61.274
-22.3374 2.42375 59.8082
-32.2355 8.93643 54.2639
-22.5382 4.34106 61.0791
-23.0612 3.77059 60.3918
-17.9813 2.57031 63.0194
-21.4608 3.7224 62.686
-22.865 5.11039 60.9831
-24.5179 4.11411 58.951
-22.7372 3.30527 62.3374
-22.0827 3.82635 62.1631
-18.1275 2.25754 64.7957
-19.0034 3.29795 62.5693
-18.919 1.85823 64.2012
-18.8947 1.96708 62.3633
-22.12 3.86324 63.1274
-22.3214 5.81308 61.5893
-18.4865 2.92068 62.8742
-22.744 4.15907 62.6859
16.9255 36.7797 -29.1931
50.7027 54.9277 -36.6967
-10.7062 26.051 -24.59
-21.2536 3.508 63.4214
-22.7689 5.91256 60.4371
-14.9614 1.33238 65.0208
-17.363 3.02707 65.4288
-18.0142 4.97365 63.8223
-14.7186 2.3973 66.9754
-24.8303 3.16281 60.8413
-21.0214 4.12182 61.2817
-23.5157 2.39472 61.6656
-28.0661 7.10485 47.1354
-27.4348 13.4624 40.7396
-28.3844 16.6594 40.62
-29.4755 16.7003 39.7484
-28.4654 5.43989 48.8233
-27.9161 5.68926 50.4426
-24.0887 3.45715 61.3454
-23.4809 4.42556 60.1817
-21.9515 3.53124 60.3003
-23.2022 3.83155 60.4167
-22.9056 3.80603 60.4721
-22.9841 3.66784 60.5896
-27.5101 8.73231 50.7088
-27.688 8.96119 50.3943
-19.9416 2.66803 61.7858
-22.637 5.69169 61.0775
-24.6883 4.6456 58.8695
-15.6872 1.81462 64.5374
-20.5778 5.33875 62.8397
22.7044 37.8131 0.910332
4.57792 48.1626 -19.8
-11.9603 29.0541 -27.3818
-22.4086 3.34054 61.6671
-22.9927 3.26129 61.2967
-20.2872 3.0414 61.553
-18.6364 2.93764 62.7509
-24.7763 3.8645 59.0368
-24.7231 6.45678 59.1375
-23.6827 4.28674 59.971
-24.2159 3.81536 59.2268
-24.4931 4.76833 59.4763
-19.1488 4.83936 63.1503
-18.8576 1.98116 62.4001
-22.0766 3.85265 63.1249
-17.293 2.4048 63.5223
-29.1093 15.1325 30.4489
-30.1026 16.4874 24.64
-28.3916 13.289 39.3546
-29.6415 16.2976 27.7244
-22.0572 4.74226 61.7878
-24.0567 6.57484 59.5125
-22.4268 3.723 62.5621
-23.3977 4.85486 61.0326
-0.147868 32.6075 -42.9972
-9.42636 31.2827 -31.8374
-13.2901 29.1229 1.68446
-17.3437 2.53659 65.3316
-18.5455 5.14601 63.6227
66.3963 82.434 -103.323
92.7102 49.3754 -140.128
-26.2231 4.09567 53.6599
-18.8521 2.46456 64.3786
-20.7326 5.5471 62.5812
-19.1515 4.87682 62.972
-17.0751 2.87484 65.4827
-18.1137 5.14866 63.7179
-21.0095 5.16678 62.647
-17.7882 3.0407 65.2335
-16.272 3.24703 64.3495
-25.4746 0.945398 57.7439
66.3379 49.9052 -144.634
-18.1902 2.61155 63.0069
-17.5107 1.6517 65.1064
-22.4385 3.8789 62.6382
-23.0055 3.83763 62.3576
-31.6128 8.10227 24.8332
-29.1921 8.01212 27.7238
-24.8802 26.2891 31.4384
5.7142 49.9328 -5.95029
-26.7985 6.62637 52.6066
-26.8778 7.61701 52.5424
-26.3603 4.46633 51.9106
-21.9923 0.893399 60.3531
-16.2322 2.48079 65.4351
-30.5943 7.19981 55.5684
-24.3675 4.27181 59.0113
-30.6279 7.7352 48.1764
-18.2446 2.33337 62.8714
-19.2144 3.68591 62.4956
-17.4877 3.08768 65.4026
-30.2212 1.30479 57.623
-16.5445 2.72796 65.7488
-17.5766 3.02673 65.3569
-17.9488 1.51257 64.7975
-17.9052 3.07259 65.1966
-23.0903 3.40698 61.4898
-26.1843 6.61389 58.3721
-15.7788 1.8293 64.462
-21.3287 3.53871 60.7576
-22.2366 3.61248 61.9491
69.778 89.9351 -89.5792
-20.8958 28.8915 8.91351
-23.357 16.8255 -0.49659
-21.8092 3.97646 62.4581
-20.5158 3.51998 61.3973
-23.6185 3.50108 61.9552
-22.2806 4.72165 61.6656
-22.1115 3.83454 62.1597
-22.1724 3.55035 61.9922
-23.9331 6.49811 59.596
-21.8823 4.16852 62.3999
-16.9036 3.04923 63.9963
-14.574 2.72842 65.5412
-15.2432 1.17548 64.8948
-16.4596 2.92714 64.3077
-17.6386 4.59293 64.8643
-21.1994 4.11834 61.0754
-14.9073 1.37157 64.9962
-26.119 3.4513 54.32
-27.3506 7.17488 51.2353
-21.1872 3.29614 60.7454
-22.4705 2.72547 62.4438
-29.4111 9.56636 51.5247
-22.3537 4.29304 60.1935
-17.044 1.38131 65.2258
-14.5557 1.30171 65.2785
-17.2411 1.11669 64.9829
128.857 68.7395 -112.093
157.692 82.0397 -136.779
65.9117 108.533 -126.204
92.6885 76.7697 -94.0468
-28.7794 16.3449 40.0901
-20.7555 5.47222 62.6653
-22.6269 1.66777 62.2469
-22.3343 3.71321 62.8388
-23.0861 3.7572 61.0186
-21.9267 3.59399 60.3832
-21.8686 3.04705 60.2471
-24.6282 4.94438 58.0081
-24.5403 4.45069 59.0788
-17.4787 3.07535 65.3912
-23.2019 1.97824 61.8821
-29.5903 9.75062 33.9169
-31.2449 13.9993 37.2893
-27.8937 11.5455 43.8743
-27.8351 4.97554 50.6943
-22.2806 5.99981 60.8574
-15.3823 2.52725 66.6022
-29.3554 0.532166 56.479
-21.2519 2.25862 63.2403
-26.4899 0.362374 59.65
-18.3135 1.81728 62.6391
-15.5087 1.35602 64.5924
-24.381 4.11208 59.29
-24.4196 4.28537 59.4087
-21.3294 3.58446 60.8125
-19.5102 1.84493 63.9722
-18.9202 1.69985 64.1887
-19.2932 1.8407 64.059
-17.8148 4.90824 63.9754
-24.3007 3.75695 59.8109
-22.5032 4.43101 60.843
123.366 68.8369 -118.654
65.0822 88.8928 -124.031
-23.5981 3.67925 63.1985
-17.0196 3.01583 63.9239
-21.9446 4.44547 63.1115
-22.1814 3.74088 62.4744
7.14088 64.2995 -30.8186
35.2348 43.4105 -93.3464
37.3295 56.3723 -19.6616
13.9603 73.6788 -36.6829
-22.3769 4.1721 62.2229
-23.4594 4.30298 62.3813
-17.3915 4.4625 65.7628
-23.3801 3.3011 61.71
-24.6338 3.65826 59.3903
-24.9968 3.78209 59.0328
-24.2251 3.36262 59.0367
-24.3356 3.34623 58.9562
-29.4864 10.8529 41.9153
-27.6742 6.73571 48.4305
-27.6481 6.7193 48.5075
-30.6844 6.61721 38.4306
-27.9201 8.61509 48.6726
-23.1929 3.84904 60.4599
-25.3293 5.23505 59.5632
-22.5106 5.74517 61.5003
-22.5204 4.87871 61.1128
-18.8226 3.26873 62.5398
19.3528 45.5051 8.17847
18.2628 31.7694 4.95528
-25.3436 3.65063 54.1528
-24.3587 3.81182 59.232
68.6707 80.2057 -100.155
70.4938 82.2009 -95.8553
65.942 78.1841 -92.4298
-17.3066 3.29916 63.7856
-18.2313 1.93488 62.8529
-21.6634 5.31658 62.9351
-22.317 3.57707 61.7961
-24.2813 6.26605 59.6935
-15.9146 2.75314 66.2723
-18.2671 4.81719 64.5197
-18.511 1.4845 62.3795
-22.2121 1.07587 62.4119
96.5914 56.8103 -180.214
83.4253 70.9353 -113.38
179.04 72.23 -154.572
47.6607 100.314 -103.958
-32.6193 0.733755 56.1752
-21.1783 2.05848 63.0031
-15.1297 2.72409 65.1365
-28.4819 11.1033 44.7141
-23.5446 5.87656 60.8837
-24.9853 4.24978 58.6095
-27.6263 5.27288 48.6267
-27.7314 7.14603 50.3043
-28.0137 7.86479 50.409
-29.5529 8.01087 52.0301
-26.1799 4.1329 52.9524
-27.2625 8.37811 51.223
-29.8387 7.50121 50.0954
-14.8702 2.18807 66.9089
-14.8726 2.25536 66.9233
-21.8326 4.52467 62.3246
-23.1461 4.33082 60.5598
-27.3772 8.37217 51.4494
-20.2991 1.88828 63.6293
-20.3081 4.06097 61.6691
-29.4905 12.4355 39.0803
-29.7293 11.1711 38.4
-29.7129 11.1442 38.4379
-28.2965 15.7098 38.5995
-27.0795 10.226 52.5174
-24.3151 4.65671 59.1151
-27.5482 8.79724 49.3621
-23.52 4.74722 60.2041
-22.5633 4.77543 61.2446
-16.5946 1.90551 65.5231
-17.8881 1.58567 64.8719
-19.3527 5.02493 64.201
-28.7619 11.2718 43.3286
-27.5351 19.9454 39.1418
-27.4942 7.70051 52.2204
-26.929 6.84329 53.1017
-18.4374 1.50327 64.4185
-17.9785 1.36384 64.7402
-16.6081 2.76265 65.7478
-24.4385 3.77169 59.0228
-27.0729 7.60115 52.8959
-18.3751 1.51097 64.6534
-26.0032 27.8014 22.0544
-29.9991 14.236 34.9279
-219.336 142.356 -560.606
-14.9204 1.60734 65.1128
-28.0306 11.9071 43.3704
-28.8276 14.2909 42.2202
-21.2003 5.51884 62.327
-23.5789 4.02671 59.6105
-32.7469 1.85447 54.4636
-15.8684 3.08382 64.6811
-22.4188 4.19824 61.1761
-15.1523 2.86115 65.1379
-23.5914 5.74184 60.6026
-30.0665 16.8139 43.8595
-27.6022 6.73542 50.5478
-12.4773 1.62452 66.7577
-25.0173 6.26952 59.2453
-14.521 2.54035 65.5401
-25.0179 3.33531 60.8654
-15.0992 2.63033 64.7549
-27.3254 16.6455 37.4237
-28.1056 7.1554 47.0283
-27.4834 10.1202 50.7376
-29.3068 16.1297 40.441
-27.6151 7.98689 48.1096
-27.5771 7.81881 49.2932
-20.4564 5.09778 63.073
-24.2156 2.81334 58.8483
-27.7165 8.495 50.8
-27.6571 6.67001 50.6518
-22.6685 3.35749 61.4407
-13.5468 2.16201 66.0764
-27.5912 7.81425 49.2886
-15.1014 1.353 64.8581
-12.7059 2.28553 66.6723
-3.1887 43.1392 -16.8052
6.39856 75.1237 -32.0995
14.9745 34.0773 -84.6498
-20.7054 30.8047 5.2619
-20.8241 30.101 -11.1532
-17.8857 1.82811 63.0349
-18.0418 1.35127 64.7155
-22.1757 3.97986 60.278
-21.7743 2.9908 59.91
-17.6884 2.33958 63.1966
-14.6188 1.58085 65.3309
-15.7079 2.88785 64.7715
-26.3489 15.2438 42.3451
-29.4073 7.37644 36.875
-27.6904 7.77684 50.0334
-15.5498 3.89283 65.1326
112.77 57.391 -137.802
62.1145 102.465 -62.5088
-22.9822 4.11434 61.3313
-21.9062 4.04853 60.485
-21.8875 4.28126 60.632
-21.0989 3.65555 60.9663
-25.4542 3.10728 60.4414
-21.708 2.95094 59.668
-20.6079 4.28597 62.8408
-17.2483 1.04646 64.8866
-17.1449 2.08903 65.365
-24.4509 2.86556 61.2165
-25.3225 2.57864 57.8688
-22.3647 3.5994 61.8163
-22.9164 3.80195 62.374
-22.2147 5.97402 60.9269
-21.6069 2.34977 63.1468
100.319 53.5204 -165.476
-18.49 42.4693 -10.3983
-24.1051 6.19273 60.1008
-20.0723 2.95038 61.7098
-21.8687 4.0885 62.4387
-21.5311 3.75674 62.6706
-22.6918 2.65774 62.496
-22.4191 2.94057 62.6144
-22.9156 3.84559 62.4114
-22.5658 2.13943 62.378
62.0872 90.367 -148.105
-23.0207 3.97562 60.9529
-21.9385 3.50747 60.3288
-22.2102 3.9973 60.2591
-23.2395 3.60333 60.7827
90.4206 65.152 -139.02
88.6355 50.939 -119.031
-21.3023 3.18896 59.791
-22.3784 3.84281 61.8033
-22.1535 3.41169 62.1315
-22.1624 4.73881 61.4282
-23.0997 3.211 62.1189
-22.1516 4.66505 61.6286
-22.3719 5.44595 60.588
87.4704 72.1584 -112.363
77.023 84.7236 -138.081
-24.3003 3.08022 61.3014
-21.9301 4.01326 60.4886
-22.3042 4.83399 61.3515
-22.4952 5.5564 60.4876
-23.3582 2.54362 61.746
-20.6214 4.05883 61.4993
-23.235 3.43912 62.0419
-22.1804 4.6332 61.7877
-20.0739 2.9284 61.6794
-28.6296 12.2473 41.8465
-29.7709 9.18168 33.6419
-21.9913 15.7474 -9.38981
-22.4701 15.1927 -5.83971
-19.8717 41.2531 5.02716
-29.342 19.7559 16.2117
-23.2236 37.9288 -3.3529
-26.5019 4.16289 53.7209
-24.2687 4.4064 59.2706
-20.522 3.96327 61.6057
-21.1271 3.57748 60.9128
-21.3928 3.44263 60.3916
-21.699 3.91163 62.2978
20.3481 48.582 6.11372
-13.2265 33.2272 -2.56866
39.6993 59.0156 -22.4382
-22.0572 3.55095 60.223
-22.2369 4.0372 61.6349
-21.1778 3.81259 60.9255
-20.7672 26.5705 -9.31881
-22.6563 36.8446 4.7027
-7.82027 29.3259 -39.346
-22.2556 4.04564 61.6248
-22.1004 4.08503 60.2091
-21.9921 3.90401 60.4305
-22.4131 4.55242 60.3922
-24.4707 6.32125 59.7363
-24.8651 4.81453 58.9349
107.847 46.5379 -95.165
75.2049 72.0531 -85.1671
-29.5715 9.77957 33.9327
-28.2772 12.8732 40.1023
-27.7514 11.7861 44.0637
-21.6494 3.58807 60.559
-22.2676 3.6146 60.0558
-21.7012 3.56141 60.5662
-14.1595 35.6121 7.0052
-27.4322 25.3871 22.8429
-25.1618 24.1862 12.1214
2.07851 57.0336 -20.8437
1.06946 53.6032 -17.8223
-12.151 50.5312 -2.82494
-335.402 370.477 -728.099
-245.037 381.918 -698.84
-181.597 236.637 -521.137
-58.282 257.164 -679.474
-99.4732 244.285 -575.781
-21.9567 3.39845 60.3117
-22.4021 3.17743 59.7192
-21.5115 3.9249 62.651
-20.2791 2.87818 61.447
-22.0274 3.62246 60.2961
34.4501 55.3008 -31.3602
34.4697 52.0159 -32.0704
-20.5337 3.9646 61.5942
-22.4408 4.04348 59.5085
-24.6284 2.87507 56.0993
-21.4815 3.19691 59.9277
-20.3456 4.10707 61.6205
-24.0327 3.65837 59.9554
-24.6101 3.62098 59.2649
-24.3681 3.27831 59.0762
-24.5639 4.89691 59.1972
-26.0995 3.57646 55.3812
-28.6212 10.9751 45.6612
-21.6001 3.54744 60.641
-22.2983 5.82989 61.5541
80.7065 56.1312 -103.453
-27.3847 8.38379 51.4441
-20.7397 3.52221 61.1143
-21.292 3.69216 60.8639
-21.8194 4.22053 60.697
-21.3173 3.91866 60.8988
-22.7509 3.7016 60.6616
-22.0112 3.64422 60.2829
-22.0477 3.94418 60.2581
-23.1759 3.59044 60.7435
-20.4976 3.39757 61.4004
-27.1432 6.48532 49.5829
44.2582 95.4018 -123.928
33.6855 80.5322 -93.9657
42.1364 60.2138 -28.7885
-21.5009 4.07003 62.585
-22.3939 2.52424 62.5247
-27.5634 6.65412 48.2516
-27.9664 11.4316 45.0894
-27.7648 6.21865 50.7772
-24.1955 2.82815 57.9309
-23.6947 3.50809 61.7599
-22.4186 3.92115 63.0139
-24.4899 3.42846 58.8756
-22.5218 4.66613 61.4925
-22.3481 3.1208 62.6596
-22.8223 5.55294 61.1073
-22.274 3.36079 62.7741
-20.283 4.06225 61.7718
-21.7785 3.09916 60.3448
-27.8662 14.2806 42.999
-27.0285 14.8565 43.1873
-1.51424 46.4007 -14.4888
29.182 36.1381 -6.36398
7.59184 51.3255 -22.9276
-29.5383 16.6422 23.3604
-2.20409 45.2476 -14.4688
-21.7787 3.03952 60.2833
-21.9054 4.10351 60.5369
-24.4595 4.76243 59.0119
-24.3645 4.14756 59.1106
-23.1954 3.84644 60.3869
-23.1457 3.80832 60.4258
-23.1886 3.84161 60.389
-22.8892 3.83293 60.7025
-26.4035 17.7765 32.7211
69.4508 104.932 -165.796
69.9176 119.304 -230.734
81.7705 95.1364 -233.326
85.9398 75.6745 -271.044
81.5418 94.7843 -252.235
-21.3773 3.56888 60.6943
-20.7075 3.38176 61.3142
-21.4262 3.67142 60.6749
-22.5081 4.06974 61.606
-22.9171 3.91663 60.7673
-21.3175 3.59265 60.8156
-22.4194 3.52825 61.7127
-20.7934 3.16468 60.7871
-26.2019 22.8596 31.2303
-27.6269 7.74339 51.0664
48.5873 44.0564 -16.6608
40.4169 47.7941 -25.3204
60.6145 83.7755 -25.7851
43.7202 49.6148 -21.3796
-21.3039 3.69889 60.8455
-22.2233 4.02781 61.6365
-20.5198 3.40983 61.3688
-22.0365 3.79248 62.889
-22.7418 4.05361 61.4821
-21.4546 3.70649 60.8927
-26.8373 4.35339 54.0287
-27.7521 10.5949 50.1891
-20.5015 3.3354 61.3747
-21.7183 3.05007 59.2762
-21.9867 3.40406 60.2771
-22.418 3.86658 61.7885
-22.1821 3.77361 61.9284
-22.3612 3.73687 61.7807
-21.6997 3.02822 59.6237
-23.6317 2.63931 61.4527
-24.6494 2.74561 58.644
-24.2747 4.43106 59.251
-22.9224 4.11942 60.7299
-23.0434 4.15811 60.5361
-21.8601 3.78171 62.5923
-22.3467 5.2328 60.5822
-21.977 3.9752 62.0809
-21.8432 2.98113 59.4659
31.5758 37.2218 -87.2544
6.18295 44.7812 -49.5105
-22.2188 3.9927 60.1051
-24.2261 5.63573 59.9735
-21.8964 4.02602 61.738
-22.627 4.48744 59.3463
-22.995 4.25349 60.8987
-21.8479 3.90945 62.1215
-21.8564 3.90862 62.1212
-21.2499 3.4879 60.8589
-21.3334 3.59937 60.7975
-24.2709 4.28782 59.1453
-24.2261 4.1697 59.2137
-22.0311 2.63403 62.9415
-21.7375 1.88396 63.0533
-21.5897 4.56283 63.9864
-18.2859 2.61601 62.9269
-20.4894 3.38327 61.4137
-22.8572 3.28107 61.4231
-22.3061 5.17451 60.5919
-23.225 3.24383 61.1546
-22.6341 4.33371 61.0128
-21.6686 3.01013 59.6416
-22.0633 3.81438 62.3085
-21.0841 3.31562 59.962
-22.6406 3.24433 61.733
-22.958 3.92487 60.875
-21.9601 3.38813 60.3056
-21.8821 3.64714 60.4007
-22.4511 3.38119 61.6561
-24.8871 6.10415 59.239
-21.8753 3.72078 60.4271
-24.7661 3.14967 60.8678
-24.1891 6.50729 59.3621
-22.9965 3.74037 61.1807
-22.3341 4.0797 60.1266
-22.925 3.77291 60.5172
-18.5036 2.97429 62.9819
-18.4694 2.68231 62.7895
-21.8282 4.50804 62.3207
42.5303 89.1774 -105.67
-31.7189 7.30571 34.1727
-29.9125 11.3869 40.981
-22.5865 5.4945 61.2674
-20.237 3.50642 61.7112
-22.0697 2.86354 59.6523
-21.5907 4.01516 62.5899
-21.4396 2.60117 63.1989
-19.1585 3.60964 62.573
-21.5826 2.63841 63.2137
-18.307 2.31877 62.801
-18.6234 3.1809 62.7783
-18.7902 2.98464 62.6551
-20.4545 4.22816 62.9619
-21.6228 4.0196 62.5851
-22.6432 2.48337 62.35
-22.3252 2.94068 62.6426
-23.2168 4.24132 61.125
-21.2853 3.43946 60.9181
-21.8262 3.87867 60.1681
-20.5231 2.79548 61.1133
-20.4329 3.8925 61.6521
-23.4712 4.76051 60.2664
-191.563 321.994 -536.935
-20.5083 4.76005 61.8466
-18.4547 3.26885 62.9741
-20.5523 4.7986 61.8042
-21.7958 3.91832 60.5097
-23.4482 4.03332 61.7922
-24.4172 2.76158 58.284
-22.2643 3.45754 62.8996
-22.0378 2.43423 62.8779
-22.2289 3.68797 60.1325
-22.0566 3.55968 60.2308
-25.3455 3.2182 59.3781
-19.2461 3.84027 62.5371
-18.8304 2.99436 62.6199
-21.9844 2.43162 62.8922
-20.6447 4.31312 62.8183
-18.4171 3.26058 62.9663
-22.4063 6.17786 60.8643
-19.7287 3.89573 62.1183
-21.3524 3.16683 63.6867
-18.685 2.92429 62.6411
-21.6686 14.0868 43.759
-27.8171 8.79767 50.6805
-22.4131 3.40768 61.6806
-22.705 2.6863 62.3249
-20.2719 4.05977 61.779
-21.9197 5.42056 60.707
-21.5214 4.53265 63.9949
-22.4086 3.60044 59.7867
-23.5532 3.89432 60.0305
-24.0551 3.74493 59.9941
-24.2432 4.19712 59.2011
17.7664 194.486 -510.914
-218.855 268.848 -482.857
-76.7143 196.201 -582.627
-82.7566 358.326 -578.497
-21.0787 4.17054 61.2259
-24.3533 3.09623 60.6694
-21.8963 3.79358 60.4722
-22.6762 3.69258 59.7304
-22.6847 4.29081 61.1745
-21.0285 4.05487 61.3716
-22.099 4.37252 59.7138
-21.9254 3.86368 60.3753
-22.6031 4.31778 61.0146
-22.1526 3.76961 60.2245
-21.5843 3.51423 60.6708
-21.982 3.94115 60.1594
-28.0628 12.284 42.0451
-29.1192 13.0655 40.4218
-23.065 3.61655 60.824
-22.1512 3.52029 60.1623
-24.7994 6.76806 58.8396
-21.9396 3.30603 60.2605
-21.4806 3.20004 59.9271
-22.9111 3.89709 60.8706
-21.3124 3.18654 59.7503
-21.3217 3.19331 59.7398
-21.7603 4.15356 61.6918
-22.2092 2.20707 62.606
-19.5921 3.74831 62.2406
7.7707 33.964 -54.614
-2.94325 33.0682 -42.2928
-26.1721 3.40756 60.3216
-22.9746 3.3189 61.5779
-22.2209 3.81323 62.6634
-22.2088 3.51609 61.9179
-22.2511 5.64105 61.4388
-22.6643 3.34844 61.4402
-22.0362 3.65884 60.2706
-24.3538 3.57242 60.0669
-23.1639 3.57104 60.6112
-23.1005 3.58622 60.483
-23.9606 3.951 59.7681
-24.3539 4.38561 59.0283
-20.8096 3.55362 61.042
-21.5597 3.04633 59.8286
-23.1069 3.27494 61.2491
-22.8249 3.1703 62.3079
-22.9832 3.4008 62.164
-10.592 32.5587 0.167656
-18.8437 41.7647 7.72048
-27.5718 6.61944 50.789
-28.7957 5.30846 50.9213
-30.0966 5.71272 49.0221
-27.6068 5.10607 50.8675
-16.9793 3.01686 63.9172
-22.1148 4.55162 63.2878
-20.1369 2.80849 61.6543
-20.5778 4.26286 62.8398
-18.3391 2.17462 64.5802
-18.3414 2.30117 64.663
-19.0832 3.72863 62.6444
-21.7866 4.06317 63.1343
-18.9272 3.53243 62.7246
-22.833 3.96421 60.6006
-23.5564 3.63705 60.2434
-22.0554 3.769 60.2931
-22.8817 3.72626 60.6648
-24.4748 4.26792 59.2982
-21.8853 4.26618 60.5743
-20.5399 3.75261 61.426
-21.7647 2.96536 59.5629
-21.9799 3.40346 63.0577
5.59317 44.4467 -48.9461
-20.589 4.98022 61.8264
-19.2257 1.99968 62.0698
-17.9856 2.26297 63.0519
-20.6335 5.63126 62.3125
-16.8837 3.03404 64.0052
-20.0976 2.97335 61.7375
-21.7584 4.04341 63.1289
-18.2255 2.70275 62.9665
-20.7165 5.5406 62.4902
-18.0059 2.27237 63.0342
-17.7452 2.00357 63.1367
-17.9932 2.27341 63.0485
-16.8613 3.01861 63.9582
-24.2508 5.33225 63.6406
-24.9903 6.99515 58.3902
-21.6825 3.79549 60.6922
-22.1448 3.79822 62.2411
-22.2642 4.78422 60.5559
-24.0198 6.03948 60.1344
-22.1563 3.99009 61.669
39.3463 67.3376 -94.4853
48.5044 101.332 -105.264
67.5112 82.0631 -142.658
-28.1258 11.9539 42.7709
-26.22 15.7433 35.6844
-25.1079 2.52491 56.6127
-20.2492 4.05054 61.7965
-23.0049 3.21501 61.8944
-22.0528 3.8287 60.3426
-22.0309 3.88842 62.5032
-21.8231 4.41048 63.4227
-21.5738 2.35024 63.1492
-22.0686 4.15154 60.4112
-17.8353 2.83215 63.2469
-24.2364 4.59394 59.5988
-22.5191 4.2252 61.002
-20.3821 3.05834 61.4368
-21.5899 2.59102 63.1755
-21.8053 4.41254 63.4388
-23.0866 2.29599 62.0274
-22.9993 3.59189 62.3161
-16.96 3.0142 63.9543
-24.7996 2.95354 58.3287
-22.0112 3.12994 63.0099
-19.0851 3.73814 62.6419
-21.7213 1.74984 62.4879
-20.9314 4.22875 63.0436
-19.1406 3.79216 62.5967
-21.8454 5.6658 61.941
-21.862 4.66625 63.2937
-21.9242 4.55409 62.2821
-22.6342 1.92053 62.3178
-20.2996 3.87301 61.7549
-20.3883 3.86206 61.7557
-21.8078 4.07426 63.1364
-21.4986 3.87957 63.84
68.6073 85.6057 -134.05
75.129 70.8521 -136.568
-21.5075 3.22853 63.6838
-22.0686 5.81097 61.816
-24.2836 4.44214 59.5833
-24.5371 4.62975 59.2345
-24.2601 3.78097 59.3524
-24.3369 4.92762 59.2038
-24.4003 3.1496 58.8305
-24.2525 3.60044 59.7639
-24.931 3.16284 58.891
-21.7156 3.68085 62.9162
-24.6508 6.44348 59.2275
-21.0459 4.54361 62.6319
-22.9953 3.9518 61.0519
-21.5147 4.17365 63.8864
-20.4012 3.44962 61.5215
-20.4967 3.49255 61.4209
-24.3076 4.21759 59.1611
-27.2902 14.7542 43.1398
-27.5568 14.0877 40.4792
-22.81 3.11382 62.1181
-23.7967 4.68679 60.0234
-23.8852 4.75723 59.9674
-22.9775 4.1631 61.3148
-21.5219 3.16833 60.0302
-22.9871 3.92001 60.9748
-21.9436 4.02598 60.4766
-18.7957 2.97081 62.663
-18.4832 3.45212 62.9574
-23.6957 2.54182 61.6231
-22.3608 2.9487 62.5459
-22.2567 4.05195 60.1607
-22.4263 4.00964 61.6328
-21.6422 3.43503 59.8058
-21.7689 3.50261 59.5858
-23.0407 3.57054 61.0564
-23.443 3.53274 60.6838
-22.8618 4.04692 60.6297
-22.4054 3.33865 61.6657
-21.738 3.61951 60.6056
-22.4215 4.00571 61.6597
-24.8602 2.93822 58.3503
-25.1558 2.89294 58.2226
-24.3129 4.49858 59.1056
45.9925 96.2148 -65.1098
-21.4023 3.4404 63.726
37.9991 43.4262 -21.6299
96.8075 56.8129 -181.482
122.645 73.3673 -105.867
36.6892 51.6079 -20.1549
36.6968 51.6223 -20.1645
143.133 60.8677 -144.829
-28.3048 11.5343 43.832
-22.8719 26.9867 4.45677
-2.21142 49.6357 -12.8914
-3.34996 43.3447 -14.1577
-12.2941 48.1462 -12.1305
-16.4174 25.9709 6.95863
-22.1979 3.88562 60.2322
-21.9425 3.44808 61.1792
-24.7494 3.49916 58.6797
-11.1064 37.8664 -5.79044
21.3798 49.0248 1.39249
8.59 31.3172 -56.9645
-115.478 164.745 -708.493
-104.793 185.175 -505.314
-24.3531 3.80344 59.249
-24.5769 3.61805 59.2846
-21.4022 1.59401 63.107
-22.9755 3.82987 62.3417
-24.5031 4.18619 59.1393
-22.5857 3.32857 61.4783
-22.3201 3.71287 62.6076
-22.3099 5.17579 60.5866
-22.8503 3.17609 62.2973
-23.1077 4.72751 61.2297
-23.9745 3.75965 59.863
-21.6633 2.94905 63.2826
-20.2384 29.1285 3.45582
-16.8531 44.0379 -1.30019
-23.0584 36.064 4.61473
109.852 60.9558 -130.399
67.1565 84.4712 -128.771
-27.3333 12.2647 41.6734
52.5213 45.4579 -113.311
21.2522 33.5204 2.81604
-24.8152 6.5373 59.1083
-25.8353 5.89385 58.5967
-22.4742 3.81581 62.3502
-21.8119 3.91394 60.5101
-22.3688 3.11611 62.6521
-22.1253 3.79287 62.2368
-20.4993 3.40226 61.3959
-22.6871 2.97366 62.4071
-21.9237 3.66646 62.9356
-29.7299 23.1976 17.4214
-28.0097 26.4541 -0.760536
-28.1158 26.1094 -0.00434896
-29.9949 20.5974 22.4835
92.9925 65.4544 -144.533
74.406 76.5286 -136.546
-17.1151 2.94298 63.7878
-17.9101 2.44786 63.0778
-23.2213 3.42416 62.0142
-22.9631 4.37775 60.6802
-23.021 4.13293 60.5457
-20.3034 4.06254 61.6648
-22.9822 3.92099 60.9836
-23.0029 3.95877 61.0546
-25.5167 3.152 60.2309
-23.8218 4.69149 60.3629
-21.7655 3.66313 63.1573
-22.6387 4.84169 61.0944
-24.8539 5.88026 59.2044
-22.0665 3.81557 62.1757
-24.3915 4.97595 59.1337
-20.532 3.73839 61.439
-23.2068 3.18658 61.9415
-22.15 3.86623 60.2645
-23.747 3.4794 61.6995
-22.832 3.72204 60.6662
-24.2934 4.4272 59.2485
-22.3 3.14159 62.8318
-25.0995 3.1277 60.627
-18.764 2.59924 62.5574
-22.054 2.43684 62.8703
-24.3677 4.40091 59.0276
-23.8516 6.41193 59.6736
-20.3316 2.40762 61.398
-20.3906 5.35775 62.7647
-23.9683 6.3495 59.8167
-21.6176 4.44728 62.0948
-21.7989 4.387 62.4948
-28.3447 12.188 44.0685
-22.3724 3.73373 62.5899
-22.3034 3.76062 61.8602
-21.795 4.0439 61.6424
-21.4864 3.73842 62.6798
-21.6623 3.08313 60.116
-24.7894 3.10389 60.5408
-22.85 3.74623 60.6195
-22.9139 3.83631 60.8245
-23.1361 3.58521 60.6534
-22.1993 3.46509 61.9397
-25.1182 2.81569 56.2741
-23.1413 3.55928 60.7917
-24.6637 2.85904 57.4608
-21.2069 4.03613 61.0375
-23.0715 3.3916 59.3309
-22.6713 4.03403 61.457
-18.3909 3.26628 63.0014
-17.7132 2.96639 65.2181
-22.1195 3.63521 62.8931
-20.3547 3.3558 61.6121
-24.9561 2.67882 57.0473
-27.8403 11.9555 43.8829
-27.592 8.06388 48.5071
-27.5467 8.03868 48.5936
-22.2888 3.54435 60.1383
-21.9354 3.35563 60.23
-22.301 3.55316 60.1221
-24.1717 4.47704 59.6205
-22.2824 3.83741 62.2248
-22.5415 4.71003 61.3709
-23.0525 4.07521 61.2022
-21.9578 3.67854 60.314
-21.7482 4.04516 62.4592
-24.2671 4.92903 59.306
-21.923 4.11646 60.5216
-23.0408 3.22315 61.8659
-24.5874 3.12294 56.4505
62.3964 99.1348 -76.5124
88.2311 67.5698 -113.387
-23.1135 3.82575 60.4261
-23.0769 3.58706 60.4912
-22.1105 3.63051 62.9494
-6.72267 37.2729 -35.3861
-18.5117 2.43546 62.7371
-25.042 5.99309 59.0991
-18.5214 2.19679 64.5444
-22.7297 5.57501 61.1802
-22.8899 5.94668 60.3961
-16.9998 3.06539 63.987
-24.6491 3.31729 61.0665
-24.2444 29.7764 22.6891
-27.5478 7.63507 50.2253
-16.8353 2.92373 63.9705
66.732 122.64 -204.157
79.917 108.499 -215.526
68.9061 111.082 -190.121
66.6637 121.961 -203.49
19.0121 39.6651 -74.1697
23.0222 81.3479 -38.1466
-19.6801 2.08281 61.7693
-22.3869 3.94416 61.8461
-21.4921 4.06524 62.5896
-20.6632 4.01243 61.5336
-21.1221 3.57244 60.9229
-20.985 3.64942 61.0256
-21.1447 3.68819 60.9331
-20.6083 3.33259 61.4217
-23.5586 4.13248 60.7318
-23.8846 3.36225 60.6031
-21.451 5.62605 61.3485
-21.8196 2.63313 63.1124
-21.6812 3.73669 62.7251
-22.0673 2.43726 62.891
-14.66 42.4839 6.33181
-17.5952 24.3085 10.0354
-27.5047 8.92518 52.5534
-19.0817 3.59829 62.604
-20.577 4.2526 62.8378
-21.2311 1.59376 63.1789
-22.4644 3.4361 61.6588
-24.9073 6.46485 59.2785
-22.4742 3.80524 62.3964
-21.6734 3.97313 61.7275
-22.2878 3.55734 61.8107
-23.1308 2.70608 62.0147
-25.1224 2.68128 56.8176
-22.3954 4.13272 60.0235
-14.2134 31.9165 3.80908
-20.0885 37.6379 12.5301
-31.6264 8.72623 28.2112
-30.4861 15.3152 32.3973
-15.847 28.9208 10.8638
-18.8824 1.9062 62.4018
-22.1682 3.77134 62.912
-21.8607 4.60764 63.2175
-22.1167 3.80295 63.0425
-21.8259 4.21443 63.2138
-17.0192 3.02682 63.9298
-20.8686 5.56903 61.9621
-21.2943 5.0347 63.8502
-18.8115 2.98509 62.6365
-19.0931 3.3285 62.5015
-24.9445 5.93189 59.1541
-22.9828 3.82527 62.343
-23.8687 6.06285 60.3001
-17.9552 2.2089 64.8647
-22.241 5.77587 61.6398
-20.558 3.94102 61.6192
-18.4918 1.80863 64.4057
-21.6924 5.23914 62.893
-21.9584 5.97857 61.2154
-23.1192 2.79026 62.0727
-22.729 3.66845 61.2965
-22.952 3.68906 61.1108
-21.8978 3.91418 62.1567
-24.6354 3.16671 61.0491
-20.5122 3.50819 61.4063
-20.1121 2.98218 61.7535
41.7849 56.6541 -105.824
37.0064 53.0015 -93.4662
-23.0657 3.72148 61.0068
-21.9155 3.66785 60.3704
-24.1578 5.4255 59.7855
-19.6426 2.07657 61.8063
-21.8932 4.54103 62.2932
