ply
format ascii 1.0
element vertex 1634
property float x
property float y
property float z
end_header
-26.682339 3.409400 -13.840104
-22.086853 3.010324 -6.995297
-23.150013 3.606797 -6.648120
-22.942541 3.618562 -5.787652
-21.961636 2.990816 -8.118632
-21.401682 3.576332 -6.373217
-24.679359 3.498114 -7.628641
33.632477 41.838562 -159.074951
22.079660 41.807529 -62.689346
35.078323 24.460903 -77.550232
7.897469 66.120468 -102.321869
-24.339348 4.606882 -7.944006
-24.530624 4.492058 -7.706435
-22.121120 4.146082 -6.726376
-23.328583 3.832021 -6.366796
-32.486946 13.263319 -39.043121
-28.894472 7.127977 -21.733446
83.774918 80.012794 -198.014832
-25.079336 4.624240 -8.060301
-25.733963 5.282661 -10.106055
-23.371143 3.936090 -6.885495
-25.852215 3.466973 -8.230954
-24.736454 2.888129 -8.576240
-21.821104 3.344087 -6.943948
-28.810051 12.037510 -23.680262
-28.172583 11.433400 -20.459272
-29.339430 12.331579 -35.083874
-29.540741 14.937816 -29.405724
-21.378481 3.457700 -6.376215
-21.755547 3.473004 -6.578927
-34.219589 14.825846 -45.025646
-17.237377 31.901018 -68.899918
-30.205341 12.772321 -29.693251
-21.371357 29.291302 -44.857525
-51.662342 434.410278 -661.729675
48.263851 164.783066 -456.573944
-27.132038 4.193983 -13.948998
-26.767324 3.645723 -14.396749
-24.865414 3.321207 -8.449934
-20.447977 28.970905 -66.724159
51.966789 60.706345 -98.320778
49.913300 101.863579 -142.457306
26.267307 47.730869 -149.320831
-1.386811 32.225681 -111.270454
-1.686461 33.161190 -134.700073
-24.307190 3.935315 -7.584034
-23.836096 3.863745 -7.289977
-24.263288 3.917384 -7.565285
-21.428476 3.628603 -6.332093
72.594635 44.004414 -134.956772
74.471069 37.334332 -137.011871
40.344017 112.708893 -188.706635
60.619419 87.986298 -147.979401
98.304031 80.983810 -164.272644
-24.800123 3.348762 -8.416436
-24.716204 3.290747 -8.260753
-22.211983 4.020664 -6.823152
-22.545362 4.210594 -6.905395
-22.076397 3.203409 -7.115232
-22.234406 3.286451 -7.025490
-22.254955 2.881278 -7.045186
-22.315596 2.882817 -7.120942
-23.256098 3.049781 -5.862814
-23.146824 4.012933 -5.956553
-24.569342 4.278492 -7.728236
-22.461916 3.472084 -7.202618
-28.060715 6.499916 -19.583864
-27.258722 15.315437 -25.360603
-20.681057 3.041403 -5.627075
-21.274799 3.701062 -6.469748
-11.629467 40.236591 -73.960197
-24.589777 4.444544 -7.778423
-22.137215 3.959288 -5.757905
-29.007387 11.931416 -25.648191
-28.190193 8.151602 -19.512850
-29.150053 14.366908 -29.747963
-24.592960 4.571285 -8.119552
-23.490011 3.733040 -6.939222
-23.498594 3.682047 -6.978762
-24.379448 4.345778 -7.572185
-23.507954 3.739354 -6.951838
41.844501 58.671623 -89.935371
60.144958 60.796329 -214.223572
41.234898 58.828789 -89.484093
-22.428265 3.890803 -5.636674
-20.767056 3.299785 -5.924865
-21.608150 3.085767 -7.639928
-26.789129 23.534718 -32.543694
-28.356764 11.559393 -24.056479
-20.985794 3.370627 -6.124932
-21.471340 3.174352 -6.451155
-22.161356 3.830177 -6.855254
-21.886593 3.309258 -7.486115
-27.165531 4.117775 -14.328268
-25.184654 5.995355 -8.109241
-22.469296 3.682828 -5.006824
-21.748314 4.152712 -6.366832
-22.424049 4.536023 -5.586654
-21.502028 3.441349 -6.559995
-31.668112 9.917727 -31.236385
-5.525305 37.691139 -106.620438
4.383923 27.632263 -124.206169
19.605415 35.898514 -144.662872
-7.746490 39.278801 -78.712402
-21.141562 3.986736 -6.108200
-14.760878 32.380936 -64.481621
-28.857929 6.716876 -27.231592
-22.191690 3.696939 -6.880336
-24.344353 2.792953 -5.948025
-22.502657 3.442211 -5.411389
-23.428637 3.478031 -6.699911
-23.375683 3.628366 -6.918813
-30.067770 10.036858 -43.160713
-20.088194 41.232502 -63.322861
-29.854155 17.479387 -37.891518
-30.067795 8.252829 -32.442215
-21.432293 3.808157 -6.332062
-21.129801 3.582524 -6.018678
-27.845970 9.742318 -16.257357
105.922562 72.875488 -209.365494
-17.064568 24.516672 -44.533070
-31.310347 12.172040 -49.589264
-23.463360 3.452235 -6.245094
-22.725962 3.995322 -6.385662
-23.317072 3.557621 -6.159487
-25.516367 3.725236 -10.260778
-24.690393 3.690680 -8.131521
-24.674690 3.423967 -8.206320
-24.662916 4.066449 -8.375099
-24.545263 4.166986 -8.101940
-24.875805 4.542778 -8.135717
-24.983366 3.992848 -8.031813
-24.761271 4.480196 -7.921319
-24.633926 3.851240 -7.992537
-24.961412 4.201792 -8.548428
-21.407661 3.583784 -6.385665
24.539091 45.140209 -72.823624
96.453667 74.661697 -187.498184
134.577072 80.507439 -201.400970
-24.694965 3.512187 -7.869324
-20.812769 3.307251 -5.826530
-23.192873 3.596995 -6.070837
-22.597263 3.981636 -5.708658
-21.289555 3.620878 -6.597069
-20.770245 3.521340 -5.884250
-21.608408 3.830970 -6.447764
-22.157303 3.562900 -6.866485
-22.339800 3.715056 -4.989975
-23.736364 2.834211 -5.591901
-25.194218 6.815548 -8.889650
78.541115 56.559658 -216.931885
42.282429 48.907497 -89.600189
91.680092 80.908195 -241.114426
46.143391 57.432507 -100.951103
-24.609583 5.553903 -7.432656
-25.265347 2.708959 -11.708402
-24.618662 5.582648 -7.427815
-24.591393 5.575688 -7.408548
-31.255367 13.088297 -49.856415
-19.473602 38.024075 -71.929848
-23.354208 3.159259 -6.051785
-22.204338 3.143291 -5.342401
-21.470951 3.731458 -6.426462
-28.137722 6.883416 -17.289722
-27.838703 4.729734 -16.130180
-27.549799 5.547581 -15.672626
-25.053799 4.744861 -7.904287
-22.568306 3.616802 -7.257111
-24.558048 3.677150 -7.421618
-24.678143 3.013289 -8.504964
-24.540668 3.470978 -7.572452
-22.584234 3.969764 -5.705237
-23.053209 3.190971 -5.753690
-23.290564 3.858371 -6.366641
-21.619909 3.513126 -6.547585
-21.417934 3.610586 -6.599995
-23.195980 3.800186 -6.550506
-21.424555 3.705862 -6.381292
-20.925619 3.406186 -5.987867
-23.245134 3.292106 -6.089140
-21.886248 3.310590 -7.495792
-22.343517 3.952708 -7.052923
-22.754772 4.851093 -6.938777
-21.746881 4.150118 -6.365082
-22.001556 4.113642 -6.671751
-21.465471 3.195192 -6.597445
50.583824 69.453491 -84.832443
56.900814 87.729019 -198.627533
-28.928238 7.039279 -21.591919
-23.786186 3.627063 -7.152617
-22.175173 3.215037 -7.050959
-21.771963 3.065785 -7.425730
-21.416182 3.593104 -6.404126
-22.611712 3.849260 -5.529694
-22.543684 5.049401 -6.702879
-21.567389 3.083475 -7.543397
-23.880299 2.707178 -5.677991
-24.304972 2.505507 -5.979053
-22.340277 3.706495 -5.129266
-22.464890 3.752847 -5.386565
-22.668331 3.741781 -5.506749
-22.390392 3.290674 -5.155941
-27.296268 9.292283 -13.978642
-28.043386 7.318893 -17.228170
-22.451899 3.673941 -5.376711
-23.621576 3.436294 -6.784113
-22.476805 3.403814 -5.375265
-23.474007 3.460225 -6.723555
-23.514156 3.741357 -6.957311
-23.276438 3.699839 -6.835284
-22.545568 3.515611 -7.286528
-28.231791 6.669291 -19.509186
71.551788 123.186394 -512.136353
53.652126 155.623886 -406.336304
-21.175140 3.434815 -6.289570
-22.199537 3.598144 -6.916531
-23.246481 3.205930 -6.023111
-24.661036 4.656787 -8.243695
82.546745 53.290916 -235.165634
-21.544178 3.565151 -6.434440
-23.097832 4.217357 -6.183190
-23.939274 3.455099 -6.739773
-24.211302 5.019927 -7.214725
-29.271896 12.807662 -27.993593
-14.814524 47.612656 -81.263489
71.726845 87.018295 -208.983871
-22.555925 3.428599 -5.483299
-21.568668 3.596941 -6.472754
54.625629 119.894051 -121.882957
-22.316025 3.550601 -7.066445
-22.360018 3.691500 -7.081320
-22.555840 3.506002 -7.289509
-22.477497 3.281798 -7.288276
-23.184494 3.684285 -6.852372
-23.198189 3.732569 -6.631594
-22.237675 3.543792 -7.016102
-22.882332 4.621037 -5.867443
-22.862125 3.575590 -4.730419
-22.948206 4.756024 -6.230032
-22.035799 3.599864 -4.288187
-24.509745 3.218384 -8.309716
-20.813072 3.994119 -5.599027
-23.014315 2.789634 -4.996552
-21.855431 3.831571 -4.660170
-31.615688 8.107739 -30.909710
-28.827984 10.488914 -21.573906
-21.715025 3.627708 -4.602723
-22.757225 4.047558 -5.913528
-21.839573 2.925214 -7.528018
45.461823 56.348835 -95.780724
27.336269 100.257744 -133.950821
5.569830 69.569656 -98.021584
-22.560358 3.433869 -5.489854
-22.404186 4.041379 -6.948017
-21.441490 3.402026 -6.450819
-29.649710 11.996646 -26.199553
-18.273933 39.381493 -52.913265
-24.643309 30.790030 -46.909363
-29.619934 13.019095 -27.599863
-29.841784 11.292981 -27.956400
-28.635887 12.467931 -26.314058
-20.891975 2.334647 -6.280334
-28.488052 11.742258 -24.447346
-30.567211 15.217228 -23.215424
-19.066380 2.912227 -4.675422
-24.148384 28.798342 -41.917774
23.181038 45.327431 -62.585869
-24.940716 3.534945 -7.960310
-21.281319 4.025907 -6.029469
-21.851002 4.015172 -4.735395
-22.452543 3.560739 -7.169039
-23.495678 2.680392 -5.255095
-21.772659 3.980977 -4.707267
-25.673782 2.364855 -11.051258
-24.168369 3.796038 -7.479791
-24.589754 4.076360 -8.188007
-24.604097 3.391404 -7.549557
-24.279837 3.635364 -7.475492
-22.335880 3.434161 -7.111094
-24.076984 3.731666 -7.324366
-22.755487 3.416430 -7.526335
-23.258932 3.542562 -6.718132
-23.342793 3.611679 -6.906367
-22.850365 2.564064 -4.930888
-22.630550 3.910083 -5.664614
-22.764269 3.473845 -5.244039
-22.335356 3.835981 -6.969880
-22.076271 3.951802 -5.670541
-21.762239 3.649052 -4.614832
-22.535233 4.352346 -6.876070
-22.174530 2.839311 -7.090109
-24.613224 5.612327 -7.423305
-22.183144 3.552869 -6.949072
-21.559559 3.789895 -6.387739
-27.479172 6.264730 -14.695531
-29.099854 11.180193 -18.649006
-21.789440 2.102699 -4.150702
-19.165771 3.436005 -4.630044
-21.692442 4.102478 -6.309130
-22.079741 3.948228 -4.203776
-22.585161 5.951838 -6.457573
-24.846527 3.188242 -6.199062
-19.126371 3.486774 -4.624659
-21.992176 3.964374 -4.742793
-21.797245 2.924222 -3.857656
-22.149193 4.433640 -4.988825
-20.797724 3.513981 -5.901299
-24.127729 6.014433 -7.126002
-24.790785 2.623909 -9.125299
-22.572563 3.262658 -4.525268
-7.928140 28.100771 -104.964180
40.434738 61.085381 -102.958725
56.427555 58.350346 -109.885391
-23.212708 3.909225 -6.766858
-21.695232 2.990515 -6.757520
-23.356716 3.535597 -6.561846
96.961754 50.029522 -215.339096
35.288864 49.461239 -86.830223
-15.068271 28.841219 -69.613869
23.150631 37.041328 -170.385696
-23.469879 4.019859 -6.181995
-22.615816 3.011918 -4.627550
-22.179325 2.976434 -4.249194
-23.074425 3.660428 -4.910545
-25.236050 6.390273 -8.087411
-20.757915 3.305202 -5.918585
-21.980951 3.574187 -4.278807
-21.030298 3.962543 -5.849245
-24.261377 3.443849 -8.881900
-22.285847 3.545325 -7.066012
-22.344759 3.586707 -7.117591
67.777351 73.859772 -234.628403
21.398344 32.859344 -147.089478
-27.614326 22.387245 -67.357269
-28.195044 22.589426 -68.246475
-23.874771 24.511192 -84.817513
-22.437080 3.706564 -5.063557
-23.271654 3.095268 -5.284686
-22.460899 4.540861 -5.512347
-22.455318 3.873717 -7.053641
-24.136639 6.324866 -7.685875
-21.826918 2.480200 -4.094698
-21.858498 2.235982 -4.124637
-23.206251 3.191202 -6.003902
-21.229408 3.758385 -6.354877
-22.167030 3.722071 -6.893844
-23.094378 3.157314 -5.864904
-22.250868 3.287102 -7.041905
-22.722881 3.773430 -5.527346
-18.777910 2.990509 -4.410934
-28.833750 6.210718 -21.334944
-20.968119 15.719929 -25.657911
-28.670311 7.944904 -21.923342
-27.638733 15.517398 -25.493359
-24.648952 5.591587 -7.450868
-24.233782 2.425511 -5.958597
-23.353008 3.880364 -6.288889
-23.309202 3.638541 -6.148572
-22.258459 3.844997 -7.459260
-23.230089 3.141535 -6.001943
-23.391123 3.473288 -6.281925
-21.738605 3.586560 -6.699657
-22.988256 3.941627 -5.807961
-27.349915 4.171754 -16.109026
-20.066624 45.981068 -71.735405
-13.397289 30.659849 -61.365501
-24.059830 2.770877 -5.861156
-23.240440 3.927108 -6.095316
-25.009451 3.501511 -7.716853
-24.199488 3.467419 -5.496014
-18.807577 2.765433 -4.491685
-25.499683 2.452471 -9.291329
-22.025085 5.056294 -6.744595
-22.338516 3.720690 -5.131132
-21.813023 3.680184 -4.617426
-21.456266 3.610631 -6.310557
-22.424763 3.686619 -4.597664
27.483545 47.770222 -74.893219
-30.152798 6.747795 -35.196980
-22.151487 3.530454 -6.918157
-24.403088 3.526966 -6.861389
-23.281557 4.293331 -6.710848
-22.502991 3.797846 -7.128061
-22.216228 3.191594 -7.074286
-26.414345 3.034293 -7.325308
-21.982203 3.467742 -7.310191
-23.276228 3.888928 -6.481569
-22.210686 3.820376 -6.878422
-23.283457 4.029908 -6.571307
26.112520 40.982327 -90.962761
28.458281 43.591599 -95.871704
60.090279 97.547455 -216.560059
67.271477 52.973568 -127.201248
60.789909 52.135117 -123.037796
53.818520 79.203300 -125.069687
51.562664 159.026321 -582.981628
-249.907837 161.467163 -655.838806
49.534401 162.897156 -493.808075
-258.860291 72.422989 -707.854980
-20.675695 2.963383 -5.914393
-23.363483 3.560259 -6.163352
-22.823418 5.543018 -5.980671
-25.029118 2.824267 -9.557417
-24.671061 4.063829 -8.372808
-25.088793 2.822316 -9.617236
-19.018835 2.883641 -4.616580
-22.746075 5.591644 -6.136840
-25.015282 2.339670 -8.764109
-24.695747 4.304939 -8.200058
-24.862825 3.700907 -8.224458
-24.901758 3.723102 -8.471791
-24.836277 3.453022 -8.547290
-24.709070 4.000753 -8.077947
-22.970850 3.361398 -4.788303
-22.643061 3.950969 -5.738713
-22.164989 3.977739 -4.913173
-22.137302 4.435363 -4.985715
-20.537237 2.945922 -5.735899
-21.777899 3.830255 -4.641158
-23.247395 5.551892 -6.282291
-22.606106 3.005725 -4.627944
-22.572269 3.260384 -4.519342
-22.398264 3.730836 -4.416779
-22.585266 3.718621 -5.029826
-22.595602 3.462376 -5.507051
-21.692259 4.102421 -6.312640
-24.959738 2.600669 -8.720693
-26.357103 32.002880 -57.029819
-28.777281 12.898282 -28.251122
-26.290861 14.432778 -30.614813
-32.107525 10.760199 -31.079109
-19.089432 2.922997 -4.706580
-24.070078 2.253072 -5.743653
-26.322956 5.725433 -10.669082
-28.227043 9.927069 -16.923922
-24.969822 3.501927 -8.118162
-25.250051 5.854270 -8.196609
-18.410814 2.587380 -4.266717
40.213726 110.276939 -186.308777
68.693916 94.116592 -143.323029
52.057156 105.013046 -147.232635
-25.328226 3.802216 -8.522988
-23.300512 3.486645 -4.984832
-23.401817 3.646709 -6.458028
-22.668894 2.919810 -4.656782
-22.110558 4.390415 -4.905863
-24.418375 6.165666 -7.180442
-23.271799 3.042563 -5.255420
-23.869686 3.365681 -5.510673
-20.772280 4.173259 -5.525446
-22.292162 3.509362 -4.305587
-20.566439 4.001798 -5.562779
-21.963459 4.047349 -4.782422
-20.662029 3.564367 -5.734328
-24.540354 2.978022 -6.119322
-24.264845 2.505238 -5.963992
-22.924927 4.750830 -6.238122
-20.766251 3.407867 -5.900619
-22.370056 3.843330 -6.996117
-21.717279 2.302788 -6.952933
-24.613533 4.379997 -8.249688
-18.547644 2.376202 -4.383354
-18.743969 3.231964 -4.369915
-23.140020 3.685375 -4.920286
-23.614353 3.120446 -5.205688
-23.678476 3.477304 -6.381232
-28.326406 2.345711 -9.757882
-23.215971 3.791946 -6.422402
-22.494612 5.745349 -5.825004
-22.282749 3.541866 -4.350857
-21.820921 3.890219 -4.670024
-22.116302 4.527278 -5.013695
-27.754215 4.763216 -16.603270
-28.683743 14.581963 -27.474632
-28.592731 15.371705 -28.763475
-29.390154 19.410852 -29.587164
-23.412361 2.831286 -5.333313
-22.092920 3.896642 -5.402517
-22.578661 4.555250 -6.870885
-23.494877 3.067667 -5.311847
-25.097788 4.663432 -8.266129
-21.149326 4.157150 -5.879283
-23.175724 5.847198 -7.147636
-23.981457 2.451613 -5.751279
-23.021049 4.159550 -6.571926
-23.586906 3.341928 -5.279752
-23.908993 4.524788 -7.196021
-23.123959 3.629744 -6.700742
-24.719877 4.882368 -8.249981
-24.962057 4.583609 -8.190315
-25.554125 4.522333 -8.655200
-24.260286 3.767907 -7.866224
-21.850813 2.669567 -3.921864
-22.317747 3.134168 -4.322690
-22.254765 5.918670 -6.103963
-22.189837 4.086063 -5.482543
-22.841522 4.279558 -7.337177
51.602421 88.299591 -212.890167
-22.493322 3.501013 -5.363252
-23.138073 2.843261 -5.001266
-21.881105 3.925901 -4.703468
-20.925648 4.255543 -4.370830
-24.614292 3.150943 -6.243114
-20.811310 4.204198 -5.563798
-20.758587 3.234841 -5.936275
-21.570093 3.709013 -6.451915
-21.427166 3.805946 -6.328371
-23.034597 3.187584 -5.730291
-22.966381 1.892451 -4.991282
-22.257122 2.318920 -4.392540
-22.256247 3.305177 -4.229052
-22.143862 4.059692 -5.462663
-24.465115 6.135816 -7.211586
-21.797504 4.308656 -6.327639
-20.675825 3.548761 -5.741444
-18.992058 2.629258 -4.677975
-19.055460 3.072775 -4.625573
-22.518160 3.787991 -4.289635
-24.890013 3.786642 -8.410749
-22.836029 2.862647 -4.806983
-18.643957 3.298363 -4.277464
-25.238768 3.158179 -8.038568
-24.804304 2.883804 -8.629970
-23.597187 3.471383 -7.263911
-24.407423 3.884938 -7.661852
-24.701403 3.474758 -8.267258
-24.618483 4.470243 -7.744315
-24.783928 4.140169 -8.063213
104.186737 83.158882 -196.355743
62.774117 107.526131 -165.730423
-32.953770 9.765290 -43.421452
-22.078539 3.920444 -5.722283
-22.655016 3.673060 -4.778646
-22.370598 4.593849 -5.851733
-22.556431 4.403481 -6.900599
-25.583344 3.408824 -6.730597
-24.570553 4.021182 -8.184503
-22.213671 4.367534 -3.895770
-21.907701 2.536111 -4.079319
-18.051064 2.673099 -4.054136
-23.272808 3.571147 -6.420528
-24.704655 2.891259 -8.554012
-24.947886 2.954435 -8.610611
-23.264511 3.784932 -6.838389
-25.084431 6.409125 -8.220656
-25.025045 3.130810 -7.288917
-22.692816 3.909305 -5.682578
-25.996973 2.898383 -9.543234
-22.505497 3.708392 -5.032064
-23.326019 2.662446 -5.193462
-20.764284 3.001563 -6.023618
-22.171337 4.562929 -5.427954
-21.877762 3.581133 -4.567941
-20.554737 3.967638 -5.634434
-24.795643 4.518503 -9.623754
-25.005482 6.450256 -7.909642
-22.144339 2.812884 -7.610225
-20.751863 3.293717 -5.907610
-22.463081 3.675475 -7.138708
-23.348677 3.500595 -6.502568
61.029587 105.651344 -142.100266
43.615166 98.929062 -141.103897
149.820114 69.150696 -217.524734
140.486755 64.014244 -192.944687
152.289322 42.149967 -205.020599
59.961552 111.995628 -199.637466
-21.376570 3.460090 -6.382017
-26.908813 4.131946 -13.257052
-27.062189 3.936255 -13.096487
-23.231518 3.777305 -6.815702
-19.163397 2.578050 -4.980012
-18.593794 2.380835 -4.447359
-18.201397 2.178183 -4.209631
-18.402029 2.713037 -4.227842
-18.412052 2.718264 -4.239542
-22.715225 26.997044 -65.525497
-23.227747 35.039902 -61.469513
-22.056795 4.512066 -4.039646
-21.918440 4.219181 -4.058554
-18.992748 3.188103 -4.610276
-23.311668 2.173235 -5.244059
-23.838528 3.821557 -7.284474
-21.919519 2.241911 -4.142346
39.772686 43.437939 -97.342155
-21.976582 4.192504 -3.401204
-18.977421 2.876135 -4.583370
69.027809 97.882957 -234.995407
136.343567 95.624832 -203.104385
-23.414913 3.485817 -6.870301
-22.476089 3.280705 -7.285881
-19.789698 3.660024 -5.000597
-20.040520 2.066203 -5.512055
-18.479671 2.631440 -4.337211
-27.667208 7.066177 -14.962193
-28.339334 4.675319 -17.359449
-28.545839 4.861839 -17.378996
-27.526804 7.888462 -15.355339
-28.555346 8.832360 -20.881706
-31.104786 37.793285 -62.142902
-28.331203 8.631030 -17.148111
-24.123444 4.830605 -6.381256
-23.047400 5.811457 -5.947699
-23.239641 3.234261 -5.023610
8.726749 69.555260 -104.039749
-28.605722 15.500863 -28.994120
-24.824770 4.627412 -7.910954
-22.213869 3.409070 -6.997195
-23.482651 3.490828 -6.663853
-22.203169 3.403345 -6.983174
-22.194906 4.089885 -4.022303
76.341675 72.033569 -163.890121
-23.264214 4.162734 -6.824127
-20.829025 4.149382 -4.264820
-21.289789 4.183500 -4.319179
-23.999334 2.412654 -5.688091
-22.411736 3.163972 -4.355810
-26.391825 3.413394 -11.983712
-24.812887 4.120992 -8.110161
-30.699131 12.267790 -22.110699
-30.614689 12.169679 -21.984821
-28.406309 8.528565 -19.136929
-24.717377 3.341924 -8.359535
76.782997 105.628448 -158.409729
-22.347260 4.450850 -3.987701
-21.964592 3.777868 -6.726445
-26.561686 14.316422 -30.175203
-28.733990 13.278418 -27.924536
-28.248201 6.920957 -18.841080
-28.278198 6.347421 -19.427210
-28.547737 8.534394 -19.381435
-28.427866 8.407114 -19.163008
-21.858889 5.132667 -3.480716
-18.420595 2.226556 -4.359150
-24.995956 4.278677 -8.577452
-24.563740 3.210869 -8.343908
-24.846924 4.570967 -8.212280
35.130703 66.037682 -102.678986
49.162983 73.164886 -185.097168
-21.796326 3.814603 -4.645071
-22.577509 3.531349 -7.329522
-24.763687 3.135614 -7.786874
-19.025888 2.879213 -4.619915
-20.865448 4.180705 -4.460272
-22.136524 4.354874 -3.853338
-25.603514 26.111708 -39.506664
-23.227692 1.640267 -5.216562
-21.645115 3.346614 -3.546661
-21.692854 3.357835 -3.544623
-22.550224 1.670967 -4.771328
-23.043766 5.868560 -6.474501
-20.898214 3.891651 -5.747961
-23.321306 4.097358 -5.997661
-24.357491 5.918775 -7.352434
-18.431147 2.529691 -4.302971
-25.239601 5.821384 -8.194797
-25.431816 2.745373 -9.110754
-25.650799 2.630970 -9.497837
-20.765030 3.415990 -5.901978
26.982262 81.577263 -124.338081
15.633157 42.670681 -128.503784
-24.094261 3.768287 -7.348160
-24.381804 4.404435 -7.632486
45.568432 43.235306 -167.212814
132.741348 62.915668 -199.959930
-20.054638 4.919339 -4.768463
-15.360916 28.339878 -67.445992
-29.698944 15.103923 -29.751251
-30.585340 14.290543 -33.523525
-24.611725 4.099001 -8.195411
48.779964 106.490707 -192.869553
-26.856531 3.476834 -14.227391
39.998791 59.761353 -92.509605
38.061287 47.313862 -89.604660
-24.664621 3.855501 -8.082386
18.850420 309.781982 -655.816711
-24.564339 5.067537 -6.782821
-22.677540 2.914455 -4.663251
-18.190857 2.043826 -4.240473
-20.693594 4.701945 -5.400653
-22.451431 3.764167 -5.162249
-24.750467 3.140023 -7.474158
-18.185017 2.039836 -4.232767
-22.247025 4.275889 -6.659724
-18.622316 3.297769 -4.232388
-21.952856 4.161487 -3.414771
-20.923422 4.048700 -5.708989
-21.640272 2.621572 -6.910514
-18.996063 2.454574 -4.745212
-15.527081 36.209030 -64.669014
-25.803988 13.162735 -81.504272
-5.937590 39.661194 -82.623573
-30.324080 18.557598 -39.518116
-29.955296 15.631888 -35.361347
-10.253684 39.166317 -67.028702
-8.526519 41.119522 -75.411072
-1.769964 62.520744 -88.147758
-20.469631 5.300707 -4.738652
-20.886452 4.196366 -4.472614
-28.217003 9.012075 -17.391191
-28.258575 9.038386 -18.949408
-26.610819 17.644003 -28.888908
-22.922327 6.094722 -5.826520
-21.981628 4.445606 -4.025445
-21.858511 4.406484 -4.651228
-27.257235 9.184388 -14.894168
-26.316299 8.028798 -13.269850
-26.906218 16.322945 -26.941408
-31.074329 22.790030 -42.645992
-24.549929 4.510192 -7.809521
-24.680578 3.425138 -7.429172
-18.929899 2.327446 -4.724454
62.272747 57.828846 -218.536972
76.508400 83.047119 -215.314407
66.287224 71.664276 -225.252457
-24.516363 2.684678 -9.462893
-23.282370 3.586041 -6.287772
-23.419004 3.566169 -6.184404
-22.482346 3.361714 -5.364133
-29.023575 12.143581 -26.070518
-28.665483 14.579707 -26.931784
-18.287516 3.331372 -4.013302
-22.428083 3.562660 -6.315414
-22.434767 4.029209 -5.962656
-25.232521 6.510193 -8.333875
-24.621078 4.363350 -8.289302
-18.487888 2.516879 -4.327377
-19.279947 3.616960 -4.603759
-22.121922 4.579389 -3.984209
-23.565468 1.840670 -5.446219
-22.531803 3.591136 -4.676433
-21.940645 3.959202 -4.832934
-25.533110 3.597271 -9.233377
-24.534220 4.499383 -8.019219
-22.142618 5.820632 -6.043238
-24.644838 3.689338 -8.062132
-24.694042 3.869390 -8.028117
-26.705772 3.970859 -14.033133
-21.930504 5.233680 -4.351299
-22.347282 3.777278 -4.884986
-22.599695 3.474349 -5.511723
-19.479294 3.594462 -4.810089
-23.246101 1.661539 -5.064290
-22.761049 2.366113 -4.540521
-24.013428 6.199571 -7.547626
-18.910749 2.852493 -4.525693
80.096527 80.928070 -195.184784
-22.027691 3.838034 -3.523178
-19.262444 2.861628 -4.844541
-22.149298 2.998386 -7.095841
-20.791836 4.196285 -4.338838
23.217552 239.294495 -531.034119
56.478210 144.984818 -393.353729
-152.849243 385.394012 -645.395752
-29.299904 14.967428 -61.428085
-22.681210 3.004612 -4.649012
-22.538929 3.614956 -4.438576
-22.455519 3.315094 -5.130624
-23.239185 3.830190 -6.240271
-20.778282 3.647508 -5.860425
-22.838144 2.208497 -5.103742
-21.954414 3.611059 -4.670796
-11.518892 40.901974 -68.757904
-28.770094 24.020197 -53.638309
-30.084047 25.390018 -57.576324
10.720102 190.413651 -701.073914
-9.131055 141.935226 -474.861023
-17.032520 2.852830 -3.285249
-22.044939 2.816433 -6.996767
-22.349167 3.195609 -4.262464
-23.527248 5.884685 -6.859066
-22.515038 5.552319 -5.873720
-20.628899 2.330662 -5.969935
-24.192299 6.363196 -7.714209
-18.339098 3.369357 -4.072080
-22.116190 3.973342 -4.843887
-22.731670 3.435150 -5.599257
-25.613010 3.006593 -6.949698
-30.104761 13.386615 -38.268974
43.549538 168.331436 -460.547882
103.500046 93.262230 -395.774445
79.943718 85.296227 -232.696426
70.704018 99.549538 -236.688019
-31.178688 11.975277 -48.844894
-23.216335 3.558668 -6.695740
-23.656235 3.955731 -7.098989
-22.629570 3.470340 -7.276893
-22.213408 3.241645 -7.110291
-28.993576 12.274118 -26.075983
-33.718670 12.818110 -74.961464
-30.003313 11.456770 -28.264692
-29.427496 9.655751 -21.109404
-24.960350 3.059544 -6.275446
-22.572981 3.928109 -5.827359
-20.770588 3.413674 -5.907029
-22.417084 3.696353 -5.063540
-18.200037 2.177481 -4.212965
-30.216997 12.374553 -28.485542
-18.653721 3.311172 -4.263947
-22.516933 3.572071 -4.386350
-23.566313 3.362834 -5.451778
-2.702587 30.422991 -115.797913
-4.170372 36.349113 -106.334587
-26.341295 27.514986 -45.699600
-23.346230 3.459925 -6.622322
-23.226604 3.398311 -6.434392
-23.864540 4.507121 -7.115250
-22.337961 4.654571 -5.528602
-22.213642 4.576742 -4.918937
-23.852955 3.130247 -6.102218
-22.274836 5.749642 -6.371328
-29.461142 14.148965 -32.765869
-27.478888 11.624658 -23.631790
-27.008297 17.391909 -28.164284
-27.057467 16.207151 -28.991623
-28.271395 10.059101 -15.052636
-25.834677 3.729200 -9.734596
-24.635635 3.929463 -8.255173
-23.212664 3.594856 -6.249931
107.846542 81.027451 -175.116638
75.291298 72.575974 -215.841522
98.067955 68.499916 -210.359283
-21.780951 4.178201 -6.401303
-20.764494 3.414474 -5.900954
-22.240530 3.572537 -7.025314
-26.818357 25.332655 -39.918056
-22.931715 3.234316 -5.862139
-24.058092 3.604745 -6.985861
-25.107590 2.970025 -6.557859
-22.202873 3.905150 -4.986449
-24.817944 3.317426 -8.444976
-22.946068 1.783204 -4.988009
-22.103285 4.294124 -4.803668
-22.435225 5.741975 -5.921095
-20.864479 3.865435 -5.747259
-26.808723 4.341449 -15.786215
-20.777905 3.643830 -5.859837
-19.021439 26.058081 -82.720917
-23.069908 5.528616 -6.176702
-22.851583 5.597424 -5.960090
-24.624495 3.670553 -8.036955
-24.813984 4.152202 -8.078216
-24.603333 3.666779 -8.021785
77.942863 74.153534 -175.538116
70.385880 85.735710 -179.673340
-21.526119 3.326308 -6.402119
-22.534811 4.192625 -6.903390
-20.693224 3.806204 -5.659435
-22.223923 2.994399 -4.262688
-22.483496 3.230171 -4.316517
-24.120377 2.451738 -5.797457
-30.461159 12.597685 -28.670897
-28.430979 12.198720 -24.415796
-23.306892 4.211351 -6.628414
-26.309044 2.823259 -8.384913
-21.276394 5.505218 -5.317005
-22.331066 3.566016 -7.087380
-22.559412 3.384166 -7.320938
-23.270987 3.534668 -6.659891
-23.224136 3.552837 -6.666198
-23.838737 3.870969 -7.291832
-18.742447 3.011168 -4.369659
58.508133 68.284836 -215.892654
64.274651 101.634636 -213.791824
-21.228752 3.507675 -6.401034
-22.087273 3.295203 -7.105692
-24.991552 3.128139 -7.275056
-22.052290 3.005983 -6.938153
-22.165846 3.547797 -6.952707
-21.640226 3.773164 -6.543722
-22.647718 2.523994 -4.699495
-20.756102 3.226588 -5.930268
-22.002625 4.435483 -5.272687
-24.503267 3.503675 -5.695410
-23.046183 4.059005 -6.512828
43.023014 102.761009 -180.993546
-21.722040 3.066038 -7.351806
30.618116 207.446655 -485.483002
-74.049614 152.377228 -385.535736
-23.270004 3.844726 -6.362819
-22.141163 4.155527 -6.737061
-21.462194 3.191421 -6.582100
-20.758600 3.616133 -5.831867
-23.981766 2.849900 -5.673644
113.645020 75.648087 -184.650131
111.088715 90.929123 -197.991852
-24.631500 3.243615 -8.396267
-28.560961 8.141295 -17.404593
-28.262716 9.077873 -17.468147
-24.236061 2.508333 -5.952654
0.135735 0.089966 0.372253
0.096229 0.123635 0.758877
0.024656 0.093766 0.475817
0.222617 0.096782 0.534000
0.120893 0.091168 0.506845
0.124213 0.061233 0.516335
0.148670 0.065139 0.560106
0.039129 0.084574 0.396084
0.043273 0.089314 0.387943
0.143475 0.088570 0.429972
0.137703 0.104834 0.442685
0.271170 -0.044671 0.655025
0.149575 0.122003 0.444549
0.050096 0.100378 0.404857
0.079170 0.121367 0.463315
0.147785 0.083671 0.438573
0.087400 0.095786 0.679482
0.013483 0.102093 0.493075
0.083375 0.126681 0.482991
0.140514 0.092604 0.384317
0.047758 0.109070 0.400346
0.032381 0.108140 0.379772
0.135718 0.094890 0.366497
0.149764 0.084072 0.443558
-0.222455 0.165860 0.793315
0.123285 -0.133666 0.773472
0.071741 0.112676 0.437504
0.106124 0.072296 0.482665
0.134284 0.092341 0.416554
0.137241 0.078562 0.557761
0.149245 0.097098 0.404304
0.126429 0.092503 0.520471
0.077349 0.130120 0.579910
-0.006025 0.066235 0.338144
0.106439 0.072674 0.480800
0.155642 0.072840 0.593128
0.036529 0.090798 0.448425
0.026715 0.100262 0.506578
-0.007249 0.154333 0.694251
0.157596 0.070479 0.649865
0.240148 0.103519 0.574708
0.148415 0.104111 0.398094
0.137150 0.103623 0.439940
0.149556 0.085340 0.442551
0.074656 0.117069 0.448494
0.030678 0.114690 0.431086
0.001592 0.123130 0.516267
0.298701 0.089836 1.107417
0.156561 0.051922 0.568582
0.127455 0.075007 0.525908
0.085855 0.002300 0.639296
0.051237 0.104343 0.460498
0.070442 0.108593 0.536030
0.108133 0.073689 0.483935
0.128262 0.068754 0.518633
0.101868 -0.165723 0.718610
-0.237945 0.172757 0.838517
-0.018680 0.102655 0.492368
0.000968 0.117606 0.440559
0.346179 0.152072 0.823354
0.149030 0.091430 0.445035
0.002257 0.164208 0.634970
0.276724 -0.044423 0.667922
0.086968 0.095533 0.652405
0.001464 0.126007 0.527228
0.108987 0.074743 0.486376
0.055499 0.062731 0.493772
0.056780 0.112875 0.495228
0.108040 0.074437 0.482813
0.145373 0.187570 0.587710
0.142201 0.102228 0.561610
0.025194 0.119637 0.425179
0.147703 0.081064 0.422984
0.134978 0.083285 0.407253
0.406842 0.176676 0.946029
0.299895 0.144419 0.701025
0.144692 0.118267 0.449591
0.123646 0.102853 0.370909
0.172164 0.063110 0.628159
0.141566 0.065583 0.565891
0.088420 0.043796 0.447559
0.055393 0.110825 0.486433
0.047059 0.099331 0.463008
0.144414 0.093280 0.566089
0.311470 0.001526 0.713558
0.047397 0.115853 0.500124
0.053251 0.110096 0.434651
0.302391 0.123575 0.643805
0.305856 0.147049 0.714735
0.341262 -0.003486 0.707932
0.297931 0.103367 0.708180
0.129445 0.108578 0.425929
0.129093 0.113260 0.403012
0.132878 0.108195 0.415804
0.143870 0.081172 0.430459
0.085819 0.133138 0.489711
0.037522 0.109533 0.405963
0.051325 0.115419 0.418992
0.047783 0.130283 0.402560
0.044167 0.106629 0.462828
0.056009 0.111682 0.489218
0.133008 0.116814 0.415314
0.025460 0.095032 0.477904
0.132131 0.058951 0.520690
0.315622 0.128497 0.670152
0.133849 0.098590 0.542942
0.145461 0.082065 0.435885
0.029168 0.110876 0.421606
0.145976 0.189462 0.590192
0.132560 0.091796 0.360413
0.135811 0.113412 0.442742
0.145050 0.081646 0.434443
0.293141 0.133259 0.617586
0.134175 0.112615 0.400203
0.126654 0.088402 0.509478
0.077840 0.078087 0.596812
0.305797 -0.001898 0.760766
0.137425 0.104258 0.416511
0.263981 -0.026952 0.773983
0.275632 -0.012519 0.793652
0.004943 0.108329 0.490556
0.137341 0.069578 0.572920
0.046209 0.088092 0.357038
0.110067 0.057452 0.580445
0.050725 0.105646 0.489439
0.029056 0.056563 0.283424
0.045064 0.102917 0.517318
-0.012623 0.057599 0.332735
-0.182973 0.148722 0.691327
0.016848 0.037205 0.820612
0.331047 -0.027402 0.777286
0.064487 0.072149 0.569571
0.310133 -0.017160 0.754385
0.004955 0.109305 0.494245
-0.153857 0.134482 0.582765
0.323621 0.001996 0.737633
0.017161 0.096208 0.510484
0.311696 -0.051514 0.786301
0.017702 0.101265 0.523058
0.129046 0.061859 0.614082
0.069374 0.104737 0.661610
0.154761 0.101197 0.463401
0.311191 -0.040198 0.728203
0.147669 0.058834 0.730766
0.325409 0.002085 0.741532
0.347763 -0.073117 0.797901
0.029553 0.108835 0.415255
0.032250 0.117101 0.582905
0.316998 0.118996 0.755676
0.016577 0.182571 0.666585
0.097790 0.045524 0.508210
0.328835 -0.034202 0.762024
0.305051 0.059365 0.731016
0.310077 0.063886 0.712200
0.144290 0.102254 0.437014
0.049828 0.114249 0.412562
0.300171 0.000475 0.756638
0.027566 0.098385 0.496590
0.295400 0.050744 0.694359
-0.000945 0.116447 0.491039
0.274040 -0.001706 0.692082
0.049454 0.122802 0.413433
0.265294 0.000086 0.692657
0.309493 0.117111 0.739072
0.031747 0.140644 0.501396
0.007152 0.093387 0.450653
0.328093 0.063224 0.782183
0.328572 -0.018623 0.798382
0.121446 0.092434 0.512206
0.074174 0.036870 0.410488
0.317802 0.131998 0.759053
0.137929 0.113353 0.430064
-0.204992 0.162897 0.547236
-0.199188 0.120905 0.482860
0.130022 0.099974 0.526027
0.313389 0.077762 0.740910
0.115316 0.055686 0.560591
0.036483 0.118215 0.408133
0.031910 0.123014 0.469199
-0.188877 0.149885 0.640790
0.113535 0.141590 0.789027
0.131689 0.045168 0.675020
0.082555 0.126544 0.617990
0.060328 -0.080626 0.655019
-0.184263 0.168318 0.668964
0.121522 0.039864 0.823214
0.343696 -0.046779 0.802665
0.300334 0.112884 0.714127
-0.380154 0.204295 1.218623
0.081971 0.145021 0.725709
0.041164 0.097688 0.479812
0.332856 -0.049452 0.960306
0.291408 0.044859 0.897141
0.338211 -0.018648 0.956868
0.321502 -0.016106 0.754437
0.424768 -0.008559 0.953825
0.268594 -0.016009 0.712321
0.115790 0.061543 0.653619
0.097104 0.049551 0.511058
0.058705 0.048897 0.715939
0.276699 -0.018378 0.743229
-0.166727 0.165451 0.625250
-0.164146 0.171821 0.608089
0.059629 -0.164109 0.622339
0.060200 -0.045039 0.671107
-0.186291 0.046285 0.498258
-0.027550 0.244135 0.820304
-0.181291 0.152528 0.569071
-0.194145 0.172879 0.599347
-0.009676 0.040966 0.244595
0.083095 0.043513 0.722097
0.076467 0.044463 0.663525
0.085277 0.154630 0.752280
0.090608 0.155890 0.827997
0.276997 -0.016238 0.788912
0.114428 0.027532 0.775423
0.173392 0.078853 0.783703
0.027286 0.096568 0.492381
0.129590 -0.140703 0.795378
0.051912 -0.173417 0.672032
0.097378 0.063360 0.640204
-0.949854 0.154163 3.012611
-0.568398 -0.178161 3.230790
-0.545605 -0.228867 3.124501
-1.157467 0.011851 2.723821
-0.329394 -0.093386 1.137784
-0.321987 0.075471 1.138745
-0.580103 0.253389 2.097724
-0.820783 0.155502 2.648342
-0.712023 -0.053297 3.275227
-0.732144 -0.046555 3.147579
-0.700143 -0.053460 3.209795
-0.388466 0.094986 1.238046
-0.278485 0.144768 1.076808
-0.396309 -0.075390 1.252277
-0.396179 -0.085086 1.295138
-3.747630 -0.329483 3.673844
-2.711566 0.077952 3.441437
-2.910587 0.109493 3.507655
-1.007260 0.162553 2.194043
-1.007929 -0.152919 2.976570
-7.251679 -0.346474 3.814143
-6.808040 0.223484 3.967379
-5.699301 0.687336 4.007008
-0.443248 0.099903 1.492141
-0.480458 -0.090856 1.448704
-0.397562 0.216967 2.013905
-0.418891 -0.156363 2.927419
-0.942754 0.250307 2.361798
-0.496311 -0.016977 2.244896
-1.052162 -0.008959 2.915736
-1.133353 -0.004915 2.917264
-1.303973 0.233549 2.824428
-0.025417 -0.096743 1.375215
-0.367790 0.089685 1.040337
0.113628 -0.083272 0.771039
-0.255495 0.208885 1.030917
-3.128976 -0.130846 3.641938
-2.947389 -0.214836 3.611201
-0.996593 -0.561423 2.498567
-0.076124 0.202460 1.032295
-0.238198 -0.105431 0.779667
-0.174931 0.059918 0.559216
-0.078348 -0.243964 1.507510
0.065034 0.032124 0.700112
-0.262086 0.005101 0.828617
-0.003614 -0.107363 1.320649
-0.010579 -0.018329 0.836400
0.108333 -0.164498 0.735255
0.262065 -0.008710 0.964454
0.294850 -0.186115 0.891589
0.135808 0.061222 0.531965
0.065694 0.044623 0.645712
0.134728 0.046873 0.680925
-0.091302 0.227207 0.848332
0.098040 0.123890 0.758581
0.055887 -0.273573 1.505514
-1.721488 0.002510 3.041615
-1.578644 0.009987 2.977260
-7.064856 -1.128221 4.514636
0.269387 -0.014669 1.171436
-0.282086 -0.015792 1.011584
0.248951 0.038363 0.831430
0.103033 0.141046 0.834168
-0.323981 0.075556 1.063344
0.055318 0.040336 0.572745
-0.384763 -0.073581 1.167662
-0.224878 0.086177 0.633205
0.057528 -0.166213 0.632439
0.121637 -0.104769 0.782895
0.267928 -0.002609 0.734868
0.083573 0.021399 0.666017
0.229603 -0.008716 0.851071
0.136223 0.055276 0.762038
0.346415 -0.006282 0.783656
0.238186 -0.024697 0.715787
-0.238002 0.227733 0.912353
-0.201124 0.221712 0.824759
0.122267 0.156797 0.798746
-0.085326 0.192994 0.706120
0.093513 0.061844 0.631756
0.307513 -0.040168 0.770894
0.018327 0.100903 0.527916
-0.213864 0.182563 0.666216
-0.217007 0.173225 0.579065
0.071417 0.041127 0.700663
0.322040 -0.025526 0.765290
0.314662 -0.017744 0.766280
0.046749 -0.160790 0.631387
0.059394 -0.164247 0.621842
-0.191702 0.190552 0.687092
-0.198244 0.202700 0.693566
-0.173596 0.114905 0.565299
0.115368 -0.175254 0.789123
0.308889 -0.031381 0.980272
0.278722 -0.005520 0.866015
-0.288652 0.230627 0.930487
-0.205695 0.028787 0.493554
0.302765 -0.017670 0.739840
0.297982 -0.014951 0.815155
0.108996 -0.158485 0.745778
0.306008 0.062990 0.703432
0.273409 -0.016412 0.775667
0.358651 -0.007209 0.802046
0.067687 -0.066438 0.687028
0.115007 -0.081857 0.770557
0.040112 -0.111102 0.554504
-0.261924 0.189852 0.825184
-0.137234 0.173029 0.604348
-0.169172 0.181394 0.574320
-0.165290 0.185624 0.656449
-0.023008 0.205550 0.674985
0.049817 -0.138267 0.652538
-0.242456 0.193101 0.882590
0.075448 0.131100 0.534028
0.065729 0.015839 0.711727
0.038959 -0.091655 0.589789
0.125442 0.100147 0.378527
0.127242 0.092522 0.399320
0.134946 0.100261 0.357160
0.127600 0.102095 0.385728
0.122539 0.113945 0.391938
0.140954 0.108637 0.442989
0.127344 0.111757 0.400019
0.127967 0.093631 0.397684
0.134944 0.107168 0.425455
0.088048 0.087948 0.586935
0.118963 0.148814 0.528586
0.142204 0.106611 0.428732
0.036305 0.063344 0.331646
0.138261 0.104616 0.444883
0.140502 0.088441 0.420298
0.134812 0.096786 0.407673
0.143654 0.093195 0.433939
0.049544 0.118081 0.405929
0.281516 0.052409 1.428416
-0.279801 0.172425 1.093929
-0.212639 0.202386 0.895211
0.077859 0.147248 0.593975
0.358803 0.074972 0.863001
-0.154862 0.141141 0.648608
0.100194 -0.149856 0.693122
0.059239 -0.163835 0.621620
0.325383 -0.054095 0.785010
0.018429 0.104601 0.566693
0.303836 0.044479 0.936307
-0.156079 0.143008 0.592308
0.083887 0.017301 0.774446
-0.355115 0.080421 0.951045
-0.187590 0.225127 1.272210
0.080319 0.098850 0.730691
-0.289404 0.191687 1.136139
-0.283700 -0.068336 1.695867
-0.440752 0.287489 1.736925
0.055326 -0.256572 1.517692
-0.446098 0.051961 1.332262
-0.440144 0.043174 1.331432
-0.428521 0.182586 1.096129
0.238202 -0.025038 0.717697
0.294146 -0.001935 0.739309
-5.791002 0.662413 3.984991
-5.154831 0.119332 3.301850
-5.907536 0.543918 4.080732
-5.684939 0.576224 3.417879
-2.058505 0.062378 3.187195
-2.557653 0.213867 3.197099
-0.302233 -0.057584 1.060942
0.090398 -0.153345 0.693391
0.095027 -0.039824 0.786559
-0.062190 0.148316 0.927209
0.251804 -0.016338 0.680221
-18.106216 4.651888 -3.358032
-20.689205 4.139461 -4.357027
0.088533 -0.151447 0.688027
-0.063583 0.043846 0.933160
-0.072498 0.049961 1.041161
-0.280872 0.102487 1.658668
0.265340 -0.109639 0.875344
-0.216387 -0.657232 2.381050
-0.455234 0.246504 2.039071
-0.450103 -0.180745 1.466830
-0.374278 -0.039360 1.252066
-0.573142 0.037404 1.379364
-1.024114 0.139537 3.080070
-1.113900 0.087507 3.116268
0.252399 -0.026924 0.749084
-0.186758 0.190462 0.657445
-0.063192 0.150890 0.954541
-0.263914 0.011077 0.958493
-0.006723 0.184474 1.049760
-0.009770 0.184432 1.035599
-1.174940 0.070838 2.202934
-0.469876 0.045766 2.133255
-12.020207 1.746837 0.817709
-12.261072 0.888046 1.117248
-12.165318 0.718503 0.996146
-10.732468 1.612719 0.680801
-10.757875 1.648511 0.640925
-3.188110 0.914266 3.351393
0.169733 0.027276 0.502165
0.130158 0.098137 0.423962
-0.102451 0.144178 1.405426
0.023026 0.189008 1.135361
-0.301074 0.101404 1.060876
-0.184916 0.209494 0.793172
0.323796 0.058871 0.760815
0.263204 0.006743 0.820815
-0.373686 0.197690 1.206765
0.299938 -0.189416 0.915009
-0.257670 0.144460 0.808657
0.125320 -0.132572 0.777257
0.292345 -0.288659 0.898279
-0.650174 -0.373529 1.838152
-0.538114 -1.072884 3.166869
-0.105767 0.135873 1.363421
0.064197 -0.102329 0.656367
-0.262974 0.210102 0.693648
0.177909 0.029398 0.519485
0.182035 0.030056 0.535239
0.127386 0.154517 0.542959
0.251477 -0.002593 0.807232
0.067000 0.047646 0.665916
0.003294 0.196765 0.739413
0.071193 -0.159835 0.626661
-0.024809 0.175263 0.813411
0.110328 -0.102755 0.773792
0.128784 -0.132516 0.785632
-0.307059 0.198008 1.018650
-0.319345 0.109197 0.979457
-0.078483 0.218993 1.113007
-0.223676 0.192017 1.573701
-0.365704 0.137228 1.181162
-0.501357 0.126469 1.979294
-0.223116 0.156141 0.710616
-0.295479 0.003694 1.075234
-0.241858 0.057139 0.969509
-0.059175 0.189718 1.089739
-0.130655 0.221417 1.086765
-4.946828 0.130673 3.044505
-3.541815 0.941204 3.627445
-2.886536 -0.252378 3.471064
-2.061771 0.175868 3.165520
-3.401092 -0.362191 3.610335
-1.752231 -0.107330 3.048654
-0.042640 -0.203490 0.911704
0.074825 0.086354 0.654946
0.157985 0.049138 0.551749
0.227418 0.028670 1.248790
-13.590565 1.708681 3.507519
-10.446623 0.867651 2.770642
-12.226281 0.803805 1.108756
-10.052449 1.349189 3.085264
-11.692525 1.213414 1.675649
-0.431330 0.245071 1.845012
-0.410235 0.108895 1.083556
-5.746174 0.123726 3.397472
-7.007475 0.792265 4.131915
-1.362169 -0.112540 3.002155
-0.136425 0.204036 1.206164
-0.484240 0.225043 2.099154
-0.303188 0.164247 0.973934
-0.077799 -0.433852 1.734645
-0.210323 -0.069123 0.626747
-0.255292 0.205775 0.924446
-0.525210 -0.535824 2.035660
0.121608 0.040015 0.625836
-3.357690 1.040779 3.193082
-2.543298 0.361947 2.748578
-1.615819 0.036306 3.003596
-1.111595 -0.109892 2.810421
-0.234397 0.202019 1.618922
-0.021220 -0.004579 0.744069
-0.290620 -0.024281 1.740288
-0.861092 0.229458 2.138849
-1.652311 -0.062769 3.026012
-1.581987 0.049574 2.998127
-1.554603 -0.063221 2.978049
0.061505 -0.168239 0.634036
-0.088733 0.214488 0.798673
-0.023567 0.168152 0.841796
0.098962 0.063592 0.655026
-0.050874 0.189000 0.820294
0.261203 -0.000107 0.725096
0.086977 0.160667 0.764646
0.050863 0.115071 0.416220
0.092701 -0.025273 0.777973
0.132198 0.058732 0.756648
0.118830 -0.043885 0.828916
-0.031426 0.195616 1.126361
0.070645 -0.028674 0.723587
0.239059 -0.103259 0.849527
-0.634871 -1.239975 3.570961
0.289150 -0.015076 1.265138
-0.610311 0.058391 2.113299
-0.602121 -0.048831 3.223130
-0.561762 -0.172907 3.164005
-2.047016 0.075868 3.184261
-6.067489 0.426640 3.915053
0.059507 0.078107 0.764561
0.224014 -0.089695 0.763888
0.060456 -0.364065 1.604451
-0.324565 -0.135507 0.986096
-0.473796 -0.120041 1.331419
-22.375301 5.646554 -5.872286
-1.301212 0.192415 2.951992
-1.098771 0.232868 2.502890
-0.721265 -0.396144 3.314438
-0.328644 -0.144353 1.095628
-0.326297 0.029987 1.125814
-0.447334 0.228795 1.199883
-0.600035 0.255354 2.146873
-0.333784 0.032718 1.138513
-0.261658 -0.126783 1.098346
-0.306954 0.040681 1.090254
-0.272513 -0.179817 1.112546
-0.282859 0.034470 1.041235
0.090144 -0.038880 0.751064
0.123079 -0.045047 0.857909
0.081319 0.021072 0.753336
0.335205 -0.040755 0.777693
0.125814 -0.144723 0.769606
0.621111 -0.307894 1.353771
0.087684 -0.147723 0.680031
0.620884 -0.272718 1.286889
0.044799 -0.110309 0.640118
0.632437 -0.222404 1.311067
0.027919 0.107125 0.408323
-0.202182 0.143816 0.643090
-0.178175 0.163833 0.745422
0.070000 0.032212 0.735203
0.271535 -0.042589 0.714107
-0.144475 0.224871 0.980702
0.248223 -0.006816 0.920215
0.124178 0.153536 0.543027
0.001813 0.181627 0.852299
0.137044 0.058043 0.519600
0.089852 0.101580 0.743274
0.298282 -0.016986 0.729352
-0.208975 0.218832 0.843356
0.094630 -0.026661 0.796295
-0.343351 0.133655 0.907366
0.142959 0.052658 0.524925
0.002014 0.139571 0.519316
0.057480 0.112673 0.457969
0.289373 0.049331 0.680925
-0.346589 0.135580 0.913534
0.269236 -0.134911 0.871475
0.279063 -0.006302 0.899382
0.141063 0.059065 0.543708
-0.868667 -0.142626 2.906167
-0.212357 0.213482 1.340059
-0.366841 0.253416 1.966920
-2.708693 0.467661 3.577138
0.147183 0.046273 0.523155
0.068389 0.130571 0.586232
0.094849 0.142783 0.543563
0.273964 -0.171484 0.848982
-0.234491 0.150104 0.812150
0.144364 0.161132 0.577402
0.080648 0.022202 0.748986
-0.064693 0.204359 0.719022
-0.245222 0.242203 0.861037
0.046391 -0.122497 0.637582
-0.257683 0.222343 0.967313
-0.183851 0.180837 0.759645
-0.338002 0.119922 1.091818
-0.444311 -0.095952 1.370677
-0.483628 -0.729239 3.163546
-0.209035 -0.456039 2.229631
-0.287181 -0.341082 2.495841
-4.370740 -0.464344 3.905885
-4.780166 0.456964 2.904342
-4.218697 0.203484 2.980942
-4.263611 0.704800 3.523966
-0.245973 0.202374 1.023441
-0.284147 0.204643 0.894970
0.001287 0.013432 0.802930
-0.201397 0.208426 1.283510
-0.104583 -0.661656 2.207155
-0.391297 0.259753 1.666170
0.146600 0.055543 0.796413
-0.150656 0.111063 1.411892
-0.402032 0.239166 1.860939
-0.377528 0.015762 1.283517
0.075343 -0.079591 0.684564
0.251230 -0.110572 0.902478
-0.201433 0.182565 0.605408
0.018563 0.102417 0.534189
0.040226 -0.127927 0.501279
-0.024792 -0.374964 1.313164
-0.068666 -0.308843 1.464696
0.103782 0.141258 0.527622
0.043250 0.038696 0.568843
-0.019196 0.015463 0.352604
-0.333275 -0.071546 0.988431
0.279566 -0.159415 0.902021
-0.201394 0.199446 0.725168
-0.590411 -0.152526 1.677781
-0.243934 -0.077381 0.884443
-7.054393 0.368300 3.928954
0.075187 0.022369 0.613894
-0.285957 0.098512 0.782487
-0.321202 0.125485 1.050522
0.192686 0.032985 0.560348
0.062931 -0.424466 1.585750
0.072481 -0.467865 1.620822
-0.050818 -0.253681 1.446188
0.008091 -0.003193 1.007338
0.059999 0.044442 0.641717
-0.100028 0.228168 0.824528
0.057929 -0.007916 0.708689
0.089010 -0.147741 0.682902
-0.395754 0.190717 1.540410
0.095570 0.069834 0.670166
0.030107 -0.044028 0.718030
0.060706 -0.044984 0.673357
0.289012 0.001200 0.751574
0.012021 -0.083626 0.883050
0.028230 -0.017011 0.831028
0.138854 -0.014657 0.888371
-0.028738 0.210449 0.695774
-0.164680 0.187862 0.689725
0.074003 -0.159849 0.634254
-0.192565 0.174865 1.539916
-0.513817 0.099228 1.204516
-10.374247 0.415734 2.691420
-9.362504 1.783456 1.487351
-9.988440 1.202867 2.666718
-10.825042 1.688429 3.146921
-9.917250 0.280235 2.534682
-1.581487 -0.197981 2.979936
-1.336330 -0.031169 2.918479
-0.460539 -0.177165 1.446286
-0.127286 0.194947 1.445563
-0.264771 0.196210 1.412092
0.037128 -0.508354 1.608701
-0.249686 0.215550 1.425488
-5.080979 0.356194 3.227389
-1.662580 -0.150145 3.012251
-1.759797 -0.174802 3.061960
-0.146000 0.049810 1.409307
-0.333416 0.232837 1.661798
-0.370614 0.106130 1.887561
-0.224899 0.183851 0.899783
0.165628 0.097283 0.544525
-0.029693 0.123318 0.774261
0.185766 -0.016020 1.059318
0.107470 -0.043011 0.802452
0.019757 0.104525 0.543576
-0.174439 0.050930 1.487179
-0.707711 0.249213 2.506617
-0.025332 -0.108607 1.587877
-0.233058 0.003485 1.494576
-13.006047 3.841545 -0.020178
-12.257608 1.516283 1.238068
-11.887073 1.096031 0.737298
-0.234457 -0.071764 0.820426
-0.231094 -0.109770 0.793733
-0.268728 -0.124959 0.921878
-1.372213 -0.075831 2.886934
-1.185019 -0.000061 2.753381
-0.261041 -0.141411 1.007593
-0.196513 -0.274415 2.094654
-0.026649 -0.127164 1.592195
0.049547 0.072628 0.702437
0.054434 0.075831 0.739801
-0.394836 0.265391 1.692377
-0.036473 -0.181940 1.130890
0.361706 0.069161 1.969318
0.079439 0.019992 0.743279
0.057944 -0.079669 0.648103
0.280059 0.008941 1.030153
0.389897 -0.052104 0.919196
-0.433504 0.112272 1.311931
-4.847479 -0.040365 3.218039
-4.962856 -0.013638 3.181113
-5.154030 0.420991 3.267461
-5.326590 0.315004 4.160856
-1.103707 0.196980 2.871142
-0.509223 0.186516 2.511678
0.236373 0.035828 0.796247
0.101046 -0.169835 0.722627
0.271828 -0.113305 0.894418
0.027243 -0.051575 0.666918
0.016900 0.036616 0.856000
-6.045636 -4.379869 12.477791
-1.342660 0.012660 2.881305
-1.148616 -0.034897 2.809945
0.264268 0.030090 0.816627
0.069451 0.032610 0.741754
-0.287138 -0.132122 0.968965
0.098778 0.143574 0.856212
0.114467 0.056107 0.567513
-0.234481 0.204451 0.983340
0.045426 -0.137129 0.590238
-1.117471 -0.021560 2.740319
-1.528751 0.212167 2.949553
-0.381559 0.154353 1.246136
-0.490968 0.281486 1.385736
-0.007246 0.014923 0.823776
0.066319 -0.024557 0.694447
-0.026915 0.190508 0.915120
0.273697 -0.004361 0.778366
-0.896887 0.255852 2.124201
-1.335033 0.140528 2.908302
-0.041570 0.212214 1.228988
-0.252454 0.171907 1.017691
0.030250 -0.020955 0.777295
-0.349756 0.140574 0.961502
-0.255604 0.221512 0.797487
-0.039698 0.188621 1.103955
0.071313 -0.028818 0.733334
-0.232984 0.218534 0.989421
0.258359 0.015728 0.722680
-0.379774 0.051560 1.369570
-1.909441 -0.095241 3.088146
-3.461161 0.648794 3.018428
-2.666878 0.149715 3.238787
-2.648335 0.156962 3.242459
-5.553958 -0.181442 3.087847
-5.776633 -0.541414 2.978354
-5.485065 0.019907 3.075515
-8.147140 0.239626 3.667749
-0.102607 -0.099850 1.447055
-0.676188 -0.319692 3.069341
