-729.673218, 752.545044, -1791.488037
-301.698273, 478.047150, -1325.772217
89.957809, 87.241653, -209.794769
82.971504, 93.068443, -195.245102
84.658730, 97.018448, -223.490891
91.741013, 80.678070, -197.309845
89.620522, 61.266640, -189.240479
88.186104, 100.328979, -200.893265
79.865425, 91.853218, -190.567078
95.311279, 71.233932, -226.059860
89.461220, 289.988342, -497.692871
85.018829, 132.454651, -282.844421
88.643753, 132.651306, -310.685059
82.921722, 95.244095, -221.449432
76.323631, 170.285461, -292.830322
81.656967, 147.346191, -301.840485
88.591980, 66.248268, -189.387405
80.509491, 74.393036, -168.907059
118.315742, 53.133385, -204.570389
81.298134, 93.554924, -217.598221
107.695442, 59.949680, -216.242294
82.504990, 81.121567, -193.866806
80.552071, 100.094666, -211.726440
-342.795227, 266.901398, -893.764893
-131.176315, 378.722931, -1076.543701
-241.809723, 229.493286, -863.748779
-266.944763, 159.132431, -877.333374
-249.933395, 224.139832, -851.320496
-197.790573, 174.037155, -1102.963989
-203.711731, 218.614578, -880.435669
-204.628510, 357.857941, -1051.808716
90.113831, 198.640747, -459.624603
102.926529, 163.995499, -288.830872
137.298279, 66.586037, -343.924316
80.852966, 80.207733, -183.901627
-308.047455, 201.919540, -873.303711
-307.926300, 195.996735, -914.819885
-304.560822, 164.328720, -917.780090
-282.061493, 164.522629, -906.601624
-368.143616, 312.204590, -862.105347
-158.567947, 256.841095, -998.794800
-118.459106, 208.939529, -841.242310
99.512032, 94.048584, -236.646301
60.278679, 183.196716, -586.593445
63.080631, 144.307907, -611.524536
100.430305, 125.064026, -301.530304
-618.875183, 445.412781, -1288.132812
-198.993225, 252.165024, -1022.427612
-345.649231, 295.959503, -895.004822
-140.835022, 301.263855, -1093.247314
-242.488663, 191.374619, -1050.293091
-190.854645, 203.285645, -1106.299072
113.948189, 67.680191, -265.792755
-23.612762, 321.145447, -914.256226
-70.750244, 357.720612, -871.553711
-40.196259, 323.609558, -898.207458
89.591614, 55.805470, -189.951431
96.174866, 57.169144, -203.211853
83.656982, 91.169571, -217.929337
96.593124, 78.252731, -230.649689
84.610748, 98.165581, -224.558746
93.368370, 58.807781, -213.563385
4.813250, 273.049927, -871.045776
-365.773590, 423.797729, -1097.095825
-650.898193, 396.230225, -1226.873901
-197.183929, 376.615509, -1076.380737
92.770187, 58.394627, -211.359146
94.796219, 122.306976, -320.921631
95.113235, 168.012711, -436.486786
78.990143, 78.811188, -175.530014
-545.774719, 524.893860, -1373.093872
129.452133, 49.241619, -214.983170
77.244812, 132.271301, -218.730286
82.434296, 96.650085, -168.340683
-366.255707, 392.912323, -868.341614
26.470718, 290.467438, -660.790955
67.521133, 144.457077, -265.855774
79.984283, 74.458046, -194.194382
153.602753, 60.538876, -261.133667
88.316071, 125.364586, -297.378235
115.435852, 114.558838, -482.667908
110.034119, 107.464508, -376.426392
77.135139, 283.815247, -462.275726
-318.220398, 387.960785, -857.127319
-448.287384, 97.073410, -985.796204
82.810005, 111.059677, -227.419586
97.172401, 64.882599, -222.587067
-273.180695, 166.235016, -897.087830
94.977684, 133.066177, -320.249084
105.018143, 111.232437, -299.489014
90.652298, 126.740814, -306.891052
123.684387, 74.094086, -371.263123
130.694992, 83.730003, -424.028992
50.894859, 405.894928, -666.546753
60.610062, 187.373993, -596.577698
61.619957, 191.588608, -608.192017
-53.189060, 374.718872, -764.801270
84.822357, 255.506073, -521.214172
97.707878, 61.726395, -214.528564
138.884552, 51.013954, -232.500488
96.204346, 97.613342, -232.333710
100.520905, 56.671734, -192.418518
-77.601654, 376.136108, -906.684998
-167.362198, 144.530869, -1178.149292
-6.808582, 226.068161, -908.398804
-6.396751, 226.387527, -903.611816
116.977097, 108.259857, -468.709259
109.428841, 125.159401, -425.668823
118.649216, 108.540962, -341.768097
81.000092, 170.578186, -348.182251
99.687141, 108.048424, -271.208160
-234.117264, 262.548889, -880.242981
-213.754562, 231.621613, -844.159180
-362.433899, 243.572632, -855.073059
-26.812920, 309.203552, -938.945801
83.135773, 98.092781, -222.436249
118.236755, 70.001419, -293.724457
82.485878, 257.424042, -453.228912
76.873749, 172.819839, -322.821686
82.130524, 156.528793, -270.272888
83.425591, 97.442894, -169.304230
76.702568, 161.783936, -315.509827
151.076813, 51.966415, -243.683609
-358.072144, 269.798737, -837.226257
-352.808411, 182.823746, -883.766846
-100.661583, 278.279205, -950.632812
-132.172897, 377.568451, -1060.818481
-132.175858, 386.546783, -1093.693481
-610.419922, 381.591614, -1223.165161
-736.344421, 9.557173, -1525.431152
96.866890, 71.876595, -228.153351
-102.491310, 211.906570, -788.248169
-716.495605, 538.831360, -1356.602051
-63.466476, 265.908356, -953.703491
5.292706, 341.220642, -726.429138
34.553101, 131.746262, -701.575806
63.743156, 144.810211, -613.669189
74.800453, 49.196556, -1417.303345
13.948691, 318.684906, -696.699829
-53.910889, 460.762634, -1255.428101
-57.012989, 363.729645, -869.477600
-315.147949, 331.248047, -827.153076
-364.423187, 46.874161, -945.817505
43.812462, 293.170135, -586.968445
100.363235, 77.667763, -213.862869
98.017609, 61.104500, -210.216675
89.522987, 81.076385, -187.721436
88.919487, 101.142242, -202.261414
-246.021072, 286.970398, -919.173157
-260.919189, 160.296600, -893.088562
-214.194305, 249.010162, -991.474731
-206.757401, 222.562424, -832.670410
-31.964823, 218.281189, -950.598999
-414.392944, 81.792534, -948.694031
-15.101894, 165.464951, -832.143860
-430.852295, 147.796631, -948.523193
25.824419, 144.192200, -792.267883
-286.507843, 198.950897, -915.646362
52.752411, 170.416443, -1044.160400
-379.268097, 396.858154, -1125.450195
113.622749, 75.131676, -293.976624
-340.402100, 131.505951, -882.637390
-639.557495, 351.218842, -1269.407715
-129.424805, 364.263794, -1066.897461
-434.748322, 261.623505, -901.692810
-426.372925, 163.758057, -938.341614
-858.635742, 238.900864, -1555.549561
-280.237213, 221.936142, -889.977905
-272.753967, 154.468796, -883.944580
-378.034668, 276.611938, -854.314758
-351.913818, 322.723053, -797.862244
-362.498535, 309.902740, -855.719055
-71.846619, 235.769547, -908.531982
-99.343903, 228.301666, -961.825867
-360.264740, 520.968872, -1106.472534
110.836830, 91.799988, -362.184784
119.116653, 77.158958, -495.713409
78.401718, 321.069733, -570.613281
-350.689026, 84.396233, -908.642822
-101.111191, 212.819656, -955.308228
-1.307308, 281.829987, -897.234375
23.624077, 294.017883, -831.212585
55.231232, 288.369568, -556.463806
98.310646, 170.268219, -496.605347
69.899696, 189.578110, -503.296478
69.056023, 288.831879, -458.636230
75.840096, 154.411530, -408.702454
69.271126, 176.398941, -414.241913
113.717873, 137.530823, -482.643219
55.504269, 248.693939, -494.245819
106.922287, 94.950806, -514.937317
115.923561, 117.432274, -427.237976
87.665726, 167.177002, -397.759369
86.911644, 167.603058, -421.069763
120.102264, 113.323250, -407.261719
123.030647, 87.516678, -430.164795
-47.216125, 329.914886, -921.720764
-74.760414, 240.666748, -1012.278503
-112.140343, 255.647949, -954.321411
-967.467407, 505.332947, -1875.808594
-273.873322, 448.686188, -1263.771851
-799.917358, 619.544556, -1654.620239
-15.802282, 236.132858, -880.684998
-921.240906, 843.758118, -1939.267212
26.799370, 58.349274, -1106.550781
-63.128483, 98.966080, -677.531738
-59.396172, 372.974213, -793.600952
88.041100, 101.737610, -229.054016
61.091282, 236.022263, -490.276459
-339.127533, 378.783936, -889.822693
55.662758, 190.321320, -647.778076
-421.584839, 342.389221, -930.895325
42.551075, 201.010147, -751.533508
-172.092529, 283.094147, -1099.528198
-225.335739, 250.456543, -862.968994
-258.736511, 225.355225, -886.604065
-356.622162, 264.830566, -863.124878
89.663078, 102.537132, -204.140717
84.802292, 83.587311, -202.965790
111.315613, 167.580231, -306.580597
42.541130, 58.602203, -122.447258
-92.421562, 247.596161, -1026.849609
-446.629730, 131.367126, -967.256470
-426.132660, 318.388092, -842.154358
-79.605453, 285.178711, -948.197754
86.642715, 139.130081, -284.817749
92.318169, 113.119522, -296.131561
93.735428, 56.680405, -191.777451
52.827606, 65.476273, -138.083527
75.208946, 93.975838, -187.671097
-461.660400, 252.137451, -954.994690
-408.788300, 257.266724, -999.956665
-276.360779, 214.986786, -873.845703
-147.757156, 208.190857, -977.803345
-205.990250, 162.584793, -1068.077271
-274.445526, 163.861664, -893.893677
-195.443695, 168.380249, -882.572083
-221.937363, 239.559753, -839.529053
-212.871246, 232.334198, -823.049866
-237.568787, 258.699738, -880.297363
-181.520096, 344.070496, -1152.828857
-206.603989, 222.385147, -832.763489
-269.019409, 191.455765, -899.113770
-290.068634, 201.080917, -914.275330
-264.286865, 166.119247, -882.645508
-280.264282, 173.599380, -870.907593
-175.830124, 327.653839, -1054.509888
-216.955200, 163.554199, -1107.558105
-237.579056, 209.164383, -920.171082
-213.071243, 232.040070, -893.842957
-253.509476, 246.539322, -864.273499
-270.024872, 148.215729, -895.430908
-299.156891, 218.207993, -896.972839
-232.958557, 236.745743, -842.731873
-242.905029, 147.166382, -985.700012
-276.536865, 177.913834, -884.211121
-278.324921, 187.173676, -892.550049
-274.861603, 161.513351, -914.439880
-174.005493, 307.259064, -1053.901611
-287.081238, 191.281631, -915.318298
-264.428741, 256.757019, -830.557190
-186.717255, 202.647308, -1080.399658
-211.039185, 230.336624, -822.018188
-201.102753, 218.785950, -804.606018
-157.884338, 335.977753, -986.676025
-245.429398, 241.429794, -825.106384
-191.966949, 222.955719, -1086.100342
-292.306000, 228.240082, -875.796021
-234.762146, 193.144714, -1145.912842
-196.087341, 360.836792, -1049.181274
-346.777679, 247.498779, -906.972534
-351.173553, 110.386909, -882.020203
-346.202728, 111.938126, -877.298401
-195.477692, 267.593323, -983.333984
-347.985535, 473.326324, -1129.382812
-423.544098, 473.571167, -1146.278809
-216.655869, 428.620087, -1084.300049
-331.127472, 244.702957, -846.544861
-370.878815, 230.938919, -920.034790
-199.170502, 448.019287, -1154.694580
-185.712997, 414.259796, -1098.232300
-280.302277, 222.010529, -832.615173
-198.637894, 362.701141, -1057.537231
-164.272003, 285.500336, -1020.634521
-163.218857, 310.947540, -1015.069702
-377.337494, 132.644455, -903.443054
-360.543732, 133.201416, -889.970825
-142.076462, 291.778809, -1157.807373
-183.189270, 356.627960, -1034.539917
-359.514008, 262.114410, -972.448975
-526.160828, 470.411621, -1246.512573
-534.772400, 540.821045, -1336.226074
-214.301865, 241.412048, -939.317688
-370.488953, 317.484802, -893.572388
-636.922852, 512.493591, -1244.007446
-195.635681, 295.963440, -969.789673
-323.250397, 447.090820, -1135.767578
-294.841217, 166.047379, -935.093689
-534.280029, 532.219177, -1193.549072
-346.326752, 327.500305, -937.183777
-183.888290, 343.629089, -1058.880981
-364.832550, 270.281067, -869.126038
-363.558472, 281.872162, -868.458984
-220.084320, 325.314850, -1004.741943
-247.033035, 272.049347, -897.452454
-567.549377, 425.799530, -1106.524780
-191.111710, 359.859375, -1092.667114
-203.831543, 218.837296, -880.726318
-275.143219, 154.316376, -898.133911
-288.868805, 231.085419, -866.234131
-215.122833, 218.549271, -818.248779
-128.551895, 153.250183, -874.903809
-417.202393, 362.887970, -1027.373779
-640.099792, 454.326569, -1344.509399
-329.860016, 268.690948, -840.153870
-186.911270, 367.824310, -1052.211792
-712.912292, 533.672058, -1507.820679
-191.346344, 242.547119, -955.510864
-356.756165, 284.824280, -889.503540
-324.015564, 282.435303, -858.809021
-356.285675, 310.076874, -880.911133
-219.374603, 218.824921, -996.216309
-226.633759, 196.470795, -1050.116577
-261.446198, 228.630035, -855.777222
-359.829498, 224.666931, -875.227539
-682.975098, 462.955719, -1349.373779
-724.660889, 484.516510, -1395.310425
-660.622375, 355.946716, -1273.707153
-251.499359, 206.051666, -955.476990
-225.404663, 248.175903, -1066.893066
-168.244095, 246.908508, -934.297119
-264.025513, 426.330872, -1138.040894
-116.849205, 384.371765, -1047.474854
-280.824951, 190.727997, -911.161926
-285.024994, 186.741638, -898.381348
-136.340256, 179.095444, -758.667603
-167.217804, 272.758026, -1057.556274
-213.733658, 231.348282, -853.728088
-212.110641, 246.339432, -1093.148193
-285.432495, 146.819061, -934.031555
-346.753448, 84.367432, -902.569336
-360.034668, 252.606720, -873.248596
-536.346924, 345.658661, -1153.166260
-521.129761, 110.131630, -1162.634155
-88.292793, 344.134308, -1021.196289
-124.007660, 363.570862, -1045.230347
-361.650024, 229.538452, -911.636597
-365.831512, 233.602402, -913.796509
-368.389526, 253.495499, -907.317566
-1499.319824, 685.801208, -3065.413574
-390.646698, 250.642197, -868.308105
-272.623840, 142.885635, -875.564453
-280.590790, 165.704834, -905.075134
-217.977112, 217.866150, -1040.004150
-300.300659, 222.999863, -906.572083
-275.022369, 172.016327, -866.786987
-146.741592, 175.826660, -956.088989
-382.026764, 239.675079, -825.453552
-668.531982, 640.198547, -1515.738647
-92.364227, 254.186035, -908.420410
-292.653931, 201.780884, -921.767090
-272.354462, 196.052261, -899.426697
-299.056641, 218.861160, -894.334656
-266.868073, 330.045532, -990.678711
-287.921722, 270.441559, -901.049133
-215.473724, 203.397491, -1017.729858
-230.165756, 232.579010, -1075.334961
-411.523499, 329.313629, -1031.242065
-544.482483, 396.250824, -1255.724731
-231.468277, 159.051697, -1199.993652
-209.682144, 223.629517, -852.123535
-217.272461, 242.770325, -867.097290
-212.187958, 229.066772, -856.159729
-197.743210, 289.872253, -921.519958
-244.822189, 283.850403, -933.385620
-215.638580, 238.611740, -853.771118
-204.550003, 221.697876, -829.897339
-224.109818, 236.932724, -834.785828
-206.542007, 221.237839, -825.445496
-200.436447, 217.974594, -805.213257
-277.506683, 211.325195, -957.035278
-298.027161, 198.597916, -898.194275
-134.688766, 238.925598, -1040.156982
-288.090820, 220.367828, -926.728699
-194.260986, 159.801315, -882.720703
-271.586792, 163.643539, -880.098633
-155.300568, 232.679382, -989.545105
-308.529572, 231.527939, -970.056458
-247.954361, 193.922180, -856.126099
-234.112732, 257.232025, -876.731812
-181.531097, 341.357544, -1088.768433
-140.301590, 211.267319, -1058.699829
-152.682678, 230.043350, -973.449890
-279.873199, 199.084763, -853.945679
-153.243530, 249.032425, -941.622009
-274.609924, 149.418961, -911.526611
-263.810791, 149.594009, -915.806335
-303.399719, 170.537201, -906.892090
-274.791931, 170.587402, -1002.272583
-274.399017, 147.394958, -901.656982
-273.970917, 142.568771, -877.241821
-292.933533, 199.951508, -864.894714
-279.655701, 390.539734, -1066.632690
-187.963440, 165.775848, -1001.035706
-373.739716, 155.736847, -962.995239
-157.790771, 239.444916, -1011.842041
-200.686615, 266.527008, -896.116333
-171.622147, 176.509735, -830.563171
-299.825226, 160.669556, -942.962646
-149.040924, 178.748856, -970.903381
-216.238815, 231.794067, -900.116882
-268.851837, 250.929474, -843.721130
-270.608368, 150.551086, -908.013000
-289.193146, 164.530975, -915.044922
-275.955536, 148.915222, -914.555359
-273.307343, 178.296631, -875.005920
-276.361572, 192.004120, -908.313049
-218.436310, 214.198517, -986.742798
-412.834961, 178.374237, -922.758179
-291.753174, 139.120102, -897.841431
-284.643097, 215.932434, -849.423096
-278.668274, 242.649796, -850.125061
-355.884613, 237.329819, -871.535217
-386.127686, 147.298645, -905.732605
-133.420197, 155.049286, -901.161316
-325.547668, 190.749100, -857.551270
-219.555710, 317.198700, -1104.552124
-573.776306, 542.409058, -1270.353516
-377.218475, 231.683685, -878.964783
-590.750671, 563.413086, -1353.824951
-421.360352, 488.087006, -1251.866699
-365.185791, 470.531494, -1141.933472
-228.518433, 240.158920, -991.354431
-376.361542, 165.934601, -1028.736572
-301.201721, 221.000046, -884.976929
-189.005386, 389.768341, -1054.976685
-645.195374, 384.695099, -1216.419067
-168.623001, 304.948975, -1009.471069
-306.707916, 204.906525, -913.376221
-348.502991, 174.784210, -869.363708
-234.137024, 219.618042, -837.427795
-274.242981, 155.364334, -871.236633
-425.227539, 490.956390, -1259.057007
-276.102203, 231.572418, -879.720215
-289.785980, 223.123398, -910.291992
-274.633911, 150.962830, -886.169800
-203.912354, 216.831116, -840.759216
-295.805237, 219.971924, -879.293640
-227.023758, 193.604141, -1119.236572
-271.458923, 172.148941, -1000.778625
-304.716705, 193.168625, -900.365173
-283.365143, 190.857071, -896.555115
-270.593018, 151.198334, -914.678040
-198.492126, 226.279205, -1120.539429
-283.275818, 217.058640, -867.843933
-181.562698, 254.330261, -1031.359375
-267.145355, 156.769669, -889.469238
-222.384598, 265.978302, -918.430298
-289.823578, 163.614120, -896.907104
-136.955780, 245.301117, -1078.639160
-194.858887, 173.781860, -1098.199463
-186.462067, 240.923676, -1048.628662
-316.931763, 202.885757, -880.256531
-328.291779, 186.252213, -926.617981
-286.685181, 177.364761, -895.549744
-283.828766, 184.851334, -886.024048
-283.790771, 215.827576, -847.920715
-295.402557, 206.886246, -882.024963
-253.809067, 128.338531, -1110.429810
-198.872925, 201.571869, -1106.471558
-199.700577, 339.266205, -1015.464783
-164.304535, 248.846069, -1066.289673
-278.901245, 177.811508, -887.173340
-214.499222, 296.063812, -922.264587
-289.497253, 196.702179, -889.558411
-275.411530, 189.227753, -878.237183
-252.215485, 255.882141, -872.720276
-201.908279, 268.355316, -900.082520
-152.657425, 206.822693, -993.279419
-201.851501, 228.677124, -924.735107
-208.142593, 214.936844, -853.127197
-211.283829, 238.337387, -845.395081
-202.073517, 205.391907, -832.264832
-192.232330, 188.798325, -1006.571838
-217.916840, 249.280807, -861.840393
-220.771973, 251.343231, -865.712769
-210.840118, 217.787384, -838.447876
-240.615295, 263.560455, -885.847656
-201.518219, 212.215607, -806.292419
-240.630554, 160.552780, -877.256104
-253.543030, 219.865448, -857.606201
-150.447922, 217.296494, -1024.815063
-221.956161, 232.787872, -832.660583
-203.821274, 217.588226, -833.667053
-269.596313, 313.303589, -971.479797
-219.371246, 236.135864, -849.651917
-294.386566, 163.037064, -901.244934
-219.013046, 230.990692, -829.797302
-247.825302, 251.330978, -854.730896
-166.593735, 291.011475, -1032.455322
-262.646973, 605.588013, -2221.947021
-226.210922, 209.630920, -861.866882
-203.968079, 222.534042, -836.596741
-197.081848, 292.168549, -923.767517
-233.903946, 216.037338, -857.635254
-202.479553, 225.245895, -831.022827
-109.823715, 413.629974, -1213.854248
-139.643173, 330.875977, -1141.990234
-201.145111, 263.033356, -887.002686
-222.845474, 208.642853, -850.742920
-228.833008, 217.216858, -862.926819
-209.981522, 222.616364, -829.224060
-224.285141, 221.194855, -880.092834
-196.229324, 269.935760, -1094.232788
-207.057785, 255.303925, -883.487366
-238.658478, 191.708771, -1042.416626
-234.876205, 259.408936, -890.551331
-226.652145, 201.401764, -853.121277
-248.340103, 206.741455, -910.320618
-206.740448, 225.089600, -818.063232
-206.707901, 222.925278, -835.448303
-247.010803, 231.953781, -867.791504
-201.882660, 213.694382, -832.163391
-224.383408, 215.631821, -841.971191
-184.744644, 344.961243, -1245.041138
-215.229080, 172.804504, -833.483521
-204.908890, 218.165710, -810.440369
-200.428696, 212.707199, -828.881958
-257.041260, 199.154633, -882.146729
-218.639114, 207.414963, -844.123047
-230.160919, 210.117188, -865.307068
-208.195557, 228.855377, -837.721680
-217.412033, 216.746124, -877.729370
-199.306381, 212.799698, -828.482544
-230.488327, 222.677216, -882.340637
-4.744403, 0.043967, 3.086165
-4.931790, 0.368825, 4.032620
-7.542555, 0.813039, 4.011880
-8.557735, -0.893687, 4.191556
-7.226534, 0.501690, 4.569033
-8.264386, 0.161227, 5.014033
-12.668210, 0.054191, 3.007323
-12.662017, 0.162747, 3.120750
-13.155552, 1.431230, 3.362948
-13.084932, 0.982626, 3.334620
-5.727013, 0.027660, 3.494133
-5.848118, -0.104746, 3.411210
-5.738860, -0.140796, 4.745862
-5.349465, 0.143789, 4.774094
-5.323646, -0.094133, 4.631707
-4.846913, 0.535933, 3.189716
-13.621453, 1.292789, 3.064458
-12.862681, 0.312835, 2.968006
-12.421041, -0.454264, 2.724245
-8.565294, 0.503978, 4.242572
-6.155195, 0.643210, 4.475034
-5.874993, 0.122078, 3.515771
-6.564377, 0.610717, 4.469837
-5.511860, 0.327488, 3.136311
-7.836819, 0.182677, 3.736183
-6.962074, 0.651296, 4.366348
-8.907473, 0.146371, 4.021513
-5.793287, 0.109624, 3.524812
-10.708639, 0.224064, 3.836814
-13.731072, -0.467420, 1.606790
-12.665312, 1.409562, 2.157563
-8.805806, 0.250206, 4.156001
-8.891549, 0.625334, 4.317669
-8.770674, 0.231831, 4.146976
-5.265151, 0.078436, 2.945513
-5.237654, 0.097079, 4.700028
-14.442507, 1.516150, 1.453932
-15.580500, 4.252678, 0.169402
-13.807610, 1.715417, 1.596244
-9.695885, 1.280009, 2.678118
-9.696771, 1.274793, 2.674522
-10.137463, 1.444192, 2.492100
-11.345933, 1.281834, 2.884669
-5.960970, 0.130117, 3.591759
-6.619745, 0.711282, 3.814098
-6.568630, 0.464277, 4.782039
-6.670434, 0.627301, 4.821610
-6.671964, 0.097257, 4.558591
-6.585930, 0.408513, 4.734934
-11.997614, 1.143493, 2.623573
-12.939973, 1.342295, 2.003182
-4.328217, 0.298142, 4.007162
-5.974307, 0.363970, 4.458765
-5.290773, -0.222926, 4.522679
-14.822463, 5.157110, 1.019426
-11.934891, -0.150110, 3.405374
-13.326530, 3.461557, 2.331900
-12.624315, 0.197722, 3.036840
-12.442575, 1.875655, 3.405921
-9.204595, 1.600664, 4.080755
-7.660397, 0.296141, 4.621576
-5.001317, 0.524039, 3.903173
-6.159092, 1.033583, 3.594185
-5.346876, 0.160383, 4.597061
-5.977504, 0.261461, 4.700137
-6.077872, 0.506828, 4.443432
-6.131965, 0.636242, 4.463484
-7.076322, 0.265338, 4.400747
-13.374726, 3.366392, 2.149112
-13.001850, 1.420138, 3.556238
-5.901679, 0.185250, 3.573339
-6.726719, -0.124911, 4.813581
-2.226726, 46.189274, -95.860497
-9.982799, 45.951504, -93.094841
-7.939169, 0.069230, 4.415202
-4.857460, 0.408700, 4.013347
-4.928364, 0.632590, 4.122652
-5.320320, 0.171045, 4.639254
-5.411827, -0.235123, 4.602315
-16.275400, 4.871151, -1.096591
-13.461183, 1.487883, 1.889105
-13.376669, 0.766253, 1.649850
43.632599, 50.922649, -107.177864
58.480042, 79.554161, -217.628815
-4.811471, 0.701274, 3.342523
-4.837435, 0.493947, 3.294614
-9.260334, 0.306866, 4.054605
-8.891520, 0.243422, 4.174454
-5.123581, -0.296716, 4.557831
-5.614326, 0.385612, 3.325303
-6.765222, 1.020808, 3.979716
-6.725903, 0.722075, 3.748373
-7.102641, 0.872711, 4.359903
-8.187520, 0.997284, 4.662536
-6.254144, 0.189476, 3.611133
-6.079314, 0.104880, 3.580493
-7.212547, 0.393509, 4.575366
-37.832363, 10.690622, -61.934990
-35.434601, 12.295217, -30.065809
-9.043542, 0.254321, 4.097372
-8.571280, 0.664957, 3.218373
-11.935195, 1.879408, 1.535347
-12.828876, 1.437832, 3.745544
-12.515933, 0.308275, 3.038106
-4.896209, 0.493354, 3.302923
-4.897177, 0.416227, 4.042859
-6.047639, 0.380168, 4.488714
-5.870388, -0.042322, 4.496382
-6.638196, 0.154577, 3.687216
-6.569432, 0.147417, 3.693093
-6.856348, 0.377146, 4.690225
-6.739606, 0.522991, 4.423759
-14.372773, 1.812597, 1.232246
-13.877376, 1.162014, 1.758977
-16.386278, 4.487772, -1.330527
-12.620955, 2.004361, 3.471651
-101.842560, 198.718613, -784.185242
-4.834497, 0.701915, 3.342367
-4.469711, 0.369092, 4.045847
-5.093400, 0.081258, 4.593575
-6.000178, 0.604336, 4.344344
-6.419895, 0.909034, 3.716701
-6.004052, 0.143329, 3.540801
-7.295870, 0.987331, 4.090468
-6.027666, 0.644219, 4.386683
-7.110320, 0.389985, 4.443297
-12.208494, 0.822442, 2.418089
-12.306545, 1.354092, 2.495954
-11.985273, 1.035030, 2.661550
-21.469234, 5.796519, -4.260069
-14.533736, 0.682900, 0.474945
-12.731524, 0.873110, 1.591728
-11.138422, 0.686059, 1.681633
-12.170972, 1.564006, 2.548364
-5.358515, 0.456316, 4.586463
-7.202659, -0.429163, 4.958426
-10.544620, 1.877307, 3.965457
-11.663365, 1.393553, 2.811517
-14.199961, 3.981528, 2.067311
-9.038152, 1.003866, 4.181048
-14.269895, 0.855859, 0.908957
-16.111444, 4.975931, -0.933951
-11.883378, 1.646561, 1.554973
-13.538595, 1.539249, 1.794304
-26.584707, 4.708475, -8.466178
-30.856064, 3.035582, -11.155005
-28.718781, 3.482267, -7.812319
-4.733388, 0.399725, 4.154167
-7.894798, 0.201311, 5.083945
-8.051219, -0.249720, 4.858998
-8.176538, 0.421211, 4.446937
-8.418138, 0.854616, 4.446084
-5.972439, 0.203356, 3.566320
-6.753948, 0.673793, 3.905247
-7.802314, -0.410942, 5.121649
-7.039648, 0.536247, 4.516129
-32.691002, 7.478968, -17.554873
-33.947124, 22.234528, -34.269520
-35.556622, 22.541552, -37.288807
-6.229531, 0.096215, 3.603181
-8.022583, 0.471600, 4.427606
-4.762357, 0.109887, 3.069716
-27.533134, 4.437860, -7.886771
-13.705086, 3.988606, 1.803852
-4.854218, 0.673279, 3.943099
98.206963, 82.724281, -210.877365
92.130577, 90.596626, -222.000397
-4.886456, 0.473532, 4.305613
-4.913421, 0.484553, 4.325015
-14.381711, 2.226787, 0.892820
-18.709372, 3.349936, -3.097538
-14.176497, 1.141667, -0.677477
-14.267955, 1.844113, 0.828706
-17.865307, 1.397212, -3.104838
-14.277495, 2.127864, 0.902346
-14.554376, 2.403931, 0.516253
-5.555994, 0.155683, 3.215355
-6.473921, 0.612541, 4.494489
-6.104253, -0.264899, 3.353836
-8.006257, 0.306128, 4.390459
83.581627, 81.806488, -187.091202
107.449379, 96.189217, -249.617081
110.168633, 65.340523, -215.355545
98.878822, 97.391922, -269.296326
-30.114285, 6.302100, -11.733777
-29.794542, 3.317760, -10.739194
-26.304182, 4.634063, -8.258130
-29.300152, 5.549555, -9.954798
-29.605179, 3.541183, -10.317523
-5.474369, 0.391551, 3.376199
-5.189114, 0.400311, 3.292462
-5.220490, 0.402137, 3.284168
-5.672338, 0.981137, 3.694551
-6.842058, 0.782847, 4.441216
-6.719029, 0.658116, 3.900918
-10.508482, 1.258612, 1.948651
-10.402699, 1.268272, 1.979048
-5.904328, 0.450967, 3.511156
-7.060468, 0.341897, 4.410197
-7.791315, -0.725940, 5.424274
-4.748753, 0.616172, 4.256354
89.186340, 88.879906, -215.395782
-27.500397, 4.296402, -7.995110
-26.782190, 4.089380, -8.716750
-28.872700, 4.828285, -9.181975
-4.147455, 0.249269, 4.010962
-4.752972, 0.323214, 3.102026
-4.487912, 0.376083, 4.070111
-5.072641, -0.079475, 4.560935
-5.521996, -0.165650, 4.618500
-6.127519, 0.926080, 3.852621
-5.803136, 0.925721, 3.585427
-12.035309, -0.362981, 2.971677
-12.651419, 1.504728, 3.409375
-8.534747, 1.075178, 4.092029
-5.443065, -0.414424, 4.576781
-4.810419, 0.502879, 4.107222
-4.366971, 0.398544, 4.159816
-14.198326, 1.301248, 0.763283
-28.747393, 6.410726, -8.686906
-29.741385, 6.960393, -9.712730
-5.654446, 0.340406, 3.271541
-7.043814, 0.332268, 4.383405
-7.034079, 0.350903, 4.440289
107.394272, 70.274506, -297.639282
-6.166102, 0.149774, 3.567645
-6.660489, 0.197183, 3.634505
-6.390407, 0.456485, 4.417651
-8.007327, 0.410232, 4.411412
-8.087132, 0.110178, 4.377437
52.469532, 62.269638, -123.378265
101.115166, 57.886478, -274.725525
-18.839293, 5.269996, -2.647667
-15.150541, 4.447186, -0.181899
-17.524755, 4.433075, -0.891308
-14.377961, 1.151129, 1.147919
-13.399207, 1.591584, 1.876099
-14.284891, 0.621543, 1.007547
-5.447062, 0.439345, 4.713329
-6.409374, 0.871490, 3.679471
-7.020119, 0.531696, 4.382335
-6.936122, -0.368453, 4.806317
-8.515736, 1.030507, 4.578198
-13.617797, 2.255094, 1.833937
-7.100978, 0.687226, 4.487911
-7.228754, 0.320187, 4.872817
-7.654785, 0.647045, 4.999478
-8.044532, 0.073950, 5.065261
-5.494383, 0.584612, 3.513526
-30.023247, 4.294364, -10.286096
-5.394300, 0.458724, 4.609056
-4.929367, 0.387629, 4.196881
-5.272797, 0.063348, 3.288292
-6.748389, 0.172563, 4.616041
-8.542377, 1.381563, 4.017182
-6.762016, -0.005459, 4.597792
-14.935771, 0.754773, 0.542807
-14.202580, 1.579762, 1.500300
-7.206426, 0.395955, 4.569368
-5.491180, 0.270732, 4.684920
-14.931992, 4.263624, 0.883868
-10.390675, 1.289761, 1.989519
-10.515488, 1.024208, 1.750430
-10.783805, 2.094783, 1.661767
-13.685819, 3.494881, 0.647833
-10.509347, 1.125759, 1.684084
-10.791821, 2.100380, 1.642269
-5.869726, 0.969231, 3.990930
-8.102700, -0.637900, 3.993477
-8.816796, 0.136034, 4.077847
-8.514359, 1.227434, 4.284601
-8.201274, 1.161327, 4.302463
-6.352722, -0.027147, 2.689175
-30.071981, 5.963603, -11.727151
-29.232738, 5.134464, -9.790806
-26.262049, 4.536404, -8.275574
-27.733236, 4.139901, -8.037718
-27.773323, 4.144624, -7.677899
-6.187855, 0.703114, 3.754261
-7.163377, 0.425673, 4.514894
-4.959321, 0.601932, 3.855033
-4.733497, 0.768365, 3.090146
-6.276053, 0.081792, 2.538970
-4.758220, 0.485780, 4.086900
-4.814754, 0.447960, 3.161633
-4.768937, 0.462718, 4.209666
-5.664667, 0.946027, 3.529211
-5.987823, 0.630651, 4.365925
-8.431625, -0.640897, 4.352808
-8.712977, 0.904682, 4.153468
-4.954724, 0.344656, 4.039520
-8.139132, -0.044669, 4.257002
-27.379824, 4.762388, -7.079830
-25.034870, 4.071130, -7.592577
66.622719, 108.868469, -233.969513
67.952293, 76.684334, -261.540436
-5.257998, 0.281224, 3.181613
-5.382845, 0.936831, 4.051884
-5.892109, 0.601680, 3.417345
-6.126588, 0.985768, 3.995434
-5.808450, -0.106137, 4.843939
-14.267617, 0.738276, 1.191968
-14.458320, 1.403194, 1.414894
-13.347953, 1.806446, 1.926852
-13.386065, 2.194710, 2.064467
-13.757329, 2.149897, 1.809426
-13.803996, 1.639919, 1.638582
-13.452182, 1.571311, 1.928720
-14.459908, 2.857953, 1.399390
-8.374487, -0.255036, 3.846597
-7.818889, 0.414187, 5.060483
-4.933587, 0.311690, 4.040704
-22.387077, 30.496836, -104.522263
-10.197494, 1.069667, 2.101415
-14.184071, 1.371675, 0.502835
-14.441762, 3.024171, 1.546677
-12.009152, 1.854344, 2.705781
-12.471185, -0.030886, 2.231239
-13.790221, 2.322144, 1.763371
-8.962381, 0.139460, 4.133094
-6.935863, 0.726405, 4.365753
-7.817115, -0.097095, 5.050129
-6.974281, 0.740455, 4.385729
-6.563406, -0.241636, 3.565088
-12.534801, 2.043247, 3.610298
-11.650681, 0.511813, 1.240218
-12.242378, 0.952947, 3.186639
-13.099944, 1.169114, 3.330768
-4.504089, 0.502089, 3.114694
-6.393717, -0.279217, 2.668781
-5.308105, 0.688257, 3.416865
-4.446574, 0.333798, 4.095155
-4.886926, 0.413240, 4.100933
-5.725718, 0.754717, 3.572668
-6.019580, -0.105877, 4.501545
-5.483100, 0.199096, 3.387292
-6.011044, -0.379623, 4.642255
-5.916830, 0.553181, 4.216299
-5.876940, -0.107124, 3.405930
-5.818243, -0.007929, 3.402249
-8.444754, -0.367860, 4.249915
-8.181457, 0.413256, 4.319741
-7.765035, 0.118134, 5.030792
-5.646456, 0.230215, 4.695314
-5.083104, -0.282268, 4.506824
-4.644353, 0.320553, 4.262971
-10.504030, 0.139744, 3.878632
-11.289956, 2.109660, 3.649057
-6.809679, 0.744612, 3.742399
-6.652864, 0.462291, 4.458580
-12.324262, -0.126075, 3.429791
-11.485289, 2.202644, 3.525441
-9.766039, 1.285001, 2.680525
-11.086529, 0.083481, 3.824889
-16.192308, -0.379475, 0.002492
-6.973453, 0.552498, 4.613400
-5.981630, 0.507391, 4.512240
-14.692394, 3.736135, 1.503082
-12.853705, 1.076155, 3.195473
-32.631390, 4.575984, -16.124243
-14.684379, 2.373932, 0.632300
-12.019172, 0.107499, 2.766654
-12.003030, 0.589486, 2.981807
-4.427661, 0.506763, 4.058660
-6.608090, 0.547710, 4.428956
-6.322798, 0.201997, 3.605068
-7.191864, 0.389322, 4.568760
-29.854979, 4.324885, -11.788740
-27.372694, 4.293280, -8.082998
-8.591825, 0.332433, 4.214618
-35.746822, 13.373615, -33.479534
-5.520539, 0.044437, 3.366652
-5.923182, 0.076809, 4.562545
-15.551541, 4.910832, 0.514713
-13.449456, 2.217573, 1.975101
-4.983170, 0.269735, 2.694252
-7.065704, -0.349750, 4.920898
-11.594581, 2.158326, 3.059804
-10.401673, 1.264991, 1.988271
-12.336818, 1.372822, 2.483810
-3.711043, 0.371359, 3.075433
-8.748346, 0.934082, 4.166269
-7.211219, -0.317609, 4.863499
-27.221523, 3.725371, -6.740910
-29.231070, 5.193927, -9.971379
-6.881181, -0.248572, 4.635452
-4.820017, 0.295014, 2.957155
-8.466328, 0.574012, 3.278620
-8.768076, 0.471446, 4.234739
-8.534089, 0.603109, 3.234769
-8.794268, 0.136453, 4.111885
-13.041582, 2.550759, 2.248783
-13.524866, 0.058385, 1.467918
-6.041500, -0.175734, 3.348156
-4.833497, 0.840752, 4.290147
-4.742466, 0.736867, 3.353475
-4.888009, 0.492834, 3.299267
-5.721231, -0.383183, 3.225289
-5.072671, 0.942469, 3.905080
-4.750304, 0.617776, 4.256615
-5.133865, 0.524039, 3.903759
-4.911930, 0.419247, 4.052198
-5.974443, 1.040772, 3.758924
-4.939294, 0.405808, 3.991014
-5.094189, 0.316063, 4.145065
-5.679708, 0.901641, 3.681959
-24.435843, 6.299900, -5.631855
-23.285471, 4.332831, -5.208937
-24.260393, 6.014699, -5.995781
-14.302174, 2.315780, 0.925533
-12.991141, 1.196052, 1.121254
-5.868979, 0.713378, 3.477055
-5.410125, -0.325767, 4.694716
-4.884187, 0.373067, 3.231114
-4.890337, 0.858702, 4.113002
-5.011961, 0.353891, 3.098233
-5.638475, -0.099202, 4.699013
-5.514110, 0.083907, 3.364673
-5.896634, -0.037771, 3.437031
-5.883567, 0.245024, 4.630670
-6.320242, 0.839070, 3.669406
-5.541083, -0.097758, 4.647377
-4.850933, 0.411094, 3.221073
-12.618217, 0.048250, 3.013740
-5.125466, -0.107980, 4.584637
-6.746116, 0.985094, 3.999944
-5.666901, -0.324467, 4.625813
-8.499494, -0.926288, 4.172319
-4.946922, 0.648771, 3.195861
-11.795156, 0.977198, 2.693934
-11.879734, 1.845592, 1.571211
-12.118686, 1.164972, 3.201303
-12.766133, 1.540903, 3.442457
-4.503141, 0.379364, 4.093401
-4.118824, 0.226969, 3.992268
-4.889673, 0.645214, 4.299877
-26.205585, 3.827804, -8.581101
-33.709057, 10.530015, -22.785706
-34.621738, 21.103182, -29.945072
-29.999071, 6.445737, -13.644005
-13.942409, 1.729955, 1.495762
-12.772142, 1.399881, 3.661376
-14.731397, 3.400778, 1.525518
-14.805449, 0.729330, 0.056207
-7.034470, 0.241100, 4.406243
-6.703086, 0.546903, 4.813815
-6.168187, 0.397330, 4.533998
-4.810951, 0.567184, 3.319091
-6.245678, -0.347097, 4.606795
-6.140965, 0.315680, 4.563044
-34.153748, 6.436609, -25.279488
-33.455215, 11.813281, -20.154455
-8.112340, 0.444451, 3.446197
-34.845421, 9.455937, -17.524807
-34.238445, 11.054121, -23.850660
-33.163300, 12.618254, -20.081955
-5.813255, 0.489141, 3.551477
-5.650220, -0.320998, 4.612678
-29.412977, 4.196788, -9.614751
-29.926224, 3.413243, -11.507689
-27.648735, 4.278193, -8.339542
-26.690132, 4.310652, -8.745502
-27.631485, 4.267875, -8.330804
-26.514746, 4.230763, -8.587221
-6.395837, 0.068844, 3.023032
-27.828306, 4.109185, -7.897872
-29.824482, 3.518009, -10.506634
-27.608711, 4.318635, -8.289992
-4.151565, 0.337715, 3.447956
-4.945837, 0.591935, 3.173045
-14.439334, 4.114643, 1.992069
-6.754899, 0.554433, 4.423546
-7.955562, -0.532890, 5.046329
-8.497184, -0.302734, 4.111154
-6.574342, 0.025078, 4.697972
-5.959461, 0.163605, 3.602440
-6.056208, -0.035204, 3.485779
-7.045233, 0.440632, 4.364964
-4.878060, 0.418101, 4.026401
-6.016247, 0.290253, 4.502659
-4.867990, 0.331235, 4.090754
-4.961095, 0.383261, 4.050503
-4.959578, 0.379224, 4.152972
-5.977373, 0.592454, 3.609091
-13.266902, 1.769448, 1.957494
-27.629248, 4.673600, -7.368329
-12.724101, 1.648283, 3.588051
-12.564868, 0.201577, 3.048137
40.046768, 68.002228, -183.456558
54.537582, 115.592308, -163.792343
65.227829, 85.979683, -242.062210
-6.576805, 0.143911, 3.643435
-7.536902, 0.608816, 4.926629
-5.214282, 0.425683, 3.225702
-8.133854, 0.010876, 4.377399
-8.771003, 0.830200, 4.339289
-8.499352, 0.764112, 3.294061
-9.031427, 0.162788, 4.039708
-14.447722, 2.219937, 1.305855
-9.094943, 0.985333, 4.219380
-8.820612, 0.242507, 4.159501
-8.820405, 0.143403, 4.070880
-14.349095, -0.179827, 0.992966
-5.156394, 0.749732, 3.199671
-5.130844, 0.397795, 3.229705
-4.196619, 0.411886, 3.981895
-4.174213, 0.364251, 3.402989
-4.371079, 0.393128, 4.101190
-4.355065, 0.387462, 4.086760
-4.859665, 0.633091, 4.288806
-27.849043, 4.130430, -7.908517
-27.262007, 5.003870, -7.461836
-25.551746, 4.248355, -7.820950
-9.715027, 1.384953, 2.716654
-29.482712, 5.376897, -9.888737
-29.568272, 5.406505, -9.830393
-29.373249, 4.817276, -9.964536
-6.974495, 0.979915, 4.461334
-7.923247, 0.016914, 4.386160
-5.401078, -0.628985, 4.510043
-5.755572, -0.547531, 4.627560
-7.090014, 0.445667, 4.519068
-14.216125, 0.680232, 0.896528
-14.364536, 2.669268, 1.162936
-8.222279, -0.053198, 4.273740
-10.780548, 1.200298, 1.532893
-10.934216, 1.315674, 1.622738
-10.933558, 1.312887, 1.624937
-12.354142, 2.192117, 2.862528
-4.867765, 0.404939, 4.084040
-5.880378, 0.148539, 4.618440
-6.422260, -0.255116, 2.953052
-5.863081, -0.155093, 3.309299
-6.327882, -0.068705, 3.013592
-5.199751, 0.384285, 3.284470
-11.897424, 1.831664, 2.752439
-12.039427, 0.363101, 3.100937
-13.160522, 1.200407, 3.333467
-8.933197, 0.145181, 4.030896
-7.237118, -0.150006, 4.809143
-6.808814, 0.238020, 4.646678
-5.088738, 0.206542, 4.610620
-4.537890, 0.405039, 3.115131
-6.694292, 0.688109, 3.871593
-6.829831, 0.731957, 3.967882
-12.635783, 0.209768, 2.001309
-8.875555, 0.641779, 4.322928
-10.944652, 1.717087, 3.229470
-12.988872, 1.694934, 2.081824
-4.865617, 0.311734, 4.533409
-4.347787, 0.488578, 2.945628
-4.215083, 0.382178, 3.467483
5.442162, 58.235138, -108.288162
-4.169382, 0.522337, 4.226455
-10.379925, 1.354680, 1.973923
-13.670276, 1.508042, 1.713343
-5.495298, 0.124181, 3.349415
-5.428492, 0.337119, 3.345086
-7.451085, 0.926562, 3.820413
-8.485809, 0.723739, 4.405649
-5.072939, 0.343909, 4.101902
-6.596990, -0.075111, 4.728410
-6.281273, 0.272891, 3.642639
-5.582885, 0.357005, 3.322497
-6.375336, 0.554382, 4.492939
-4.321543, 0.240738, 4.290690
-12.648133, 1.659097, 3.954050
-12.854628, 1.085370, 3.188471
-9.339772, 0.927477, 4.092856
-8.163838, 0.729346, 4.392396
-7.504610, 0.756717, 3.773204
-7.657722, 0.398832, 3.669218
-34.761433, 6.408158, -23.144325
-9.752173, 1.379834, 2.671462
-17.534184, 4.963358, -1.522463
-6.781249, 0.512035, 4.433949
-7.036078, 0.428074, 3.626103
-6.646536, 0.490941, 4.464652
-7.561804, -0.002192, 3.625918
-5.477952, -0.079478, 4.648266
-5.599757, 0.701844, 3.564192
-4.125341, 0.493486, 4.000193
-4.178812, 0.361980, 3.459387
-5.046863, 0.928893, 3.029327
-4.645432, 0.316950, 4.253105
-5.567032, -0.617885, 4.548953
-4.772462, 0.144719, 3.169495
-4.329815, 0.082499, 4.234335
-4.738547, 0.777569, 4.197947
-5.557610, 0.060600, 4.701343
0.437642, 44.674728, -132.600983
-5.404026, 0.843233, 3.201018
-4.709563, 0.532349, 3.803442
-6.500917, 0.427591, 4.453337
-7.528141, 0.185386, 4.892663
-9.228482, 1.329106, 4.180530
-8.414320, 0.893060, 4.629655
-7.700005, -0.591410, 5.121799
-6.585829, 0.703350, 3.823573
-7.592717, 0.329460, 4.945676
-7.947261, 0.070649, 4.419766
-12.144130, 2.764815, 3.074423
-14.202100, 1.699139, 1.261072
-14.344331, 2.747369, -0.461295
-15.114224, 2.833663, -0.795447
-23.723595, 6.095664, -5.509217
-14.052449, 2.779563, -0.183921
-14.332298, 1.516578, 0.978500
-18.465958, 3.452028, -2.999913
-14.567447, 3.023807, 1.385781
-26.189463, 3.808075, -8.615011
-29.224556, 5.074477, -9.875148
-29.504829, 3.451290, -10.289474
-14.219178, 2.631301, -0.339051
-12.554120, 1.093733, 1.398721
-14.532579, 2.249480, 1.328485
-14.388638, 0.745877, 1.155836
-20.988985, 0.565943, -3.599771
-14.228824, 0.660483, 0.758751
-14.021229, 1.211288, 0.571956
-14.266861, 0.743753, 0.831585
-29.525534, 3.881552, -10.084332
-11.685507, -0.131706, 2.750609
-13.341883, 1.121132, 0.542599
-12.417185, 0.068268, 2.150445
-9.679839, 1.274690, 2.687649
-11.502493, 0.612869, 3.839323
-12.315460, 0.131966, 3.536767
-11.533342, 0.613587, 3.882348
-27.504770, 4.364504, -8.215323
-26.209106, 3.860523, -8.593388
-29.215622, 5.654532, -9.664774
-31.017530, 3.351832, -9.957940
-26.189861, 3.806822, -8.617490
-29.987837, 6.010745, -11.611308
-6.395885, 0.339762, 4.723668
-6.307460, 0.207849, 3.615140
-6.416132, 0.130137, 3.625738
-6.811497, 0.416740, 4.664601
-12.293550, 2.385120, 3.427564
-11.776579, -0.047069, 2.530522
-12.300811, 0.321063, 3.202704
-15.119026, 4.014397, 1.431427
-8.107273, 0.942527, 3.779557
-6.597327, 0.481619, 4.456449
-7.068740, 0.661836, 4.484244
-6.960317, 0.410829, 3.636824
-6.600233, 0.456054, 4.457019
-7.522503, -0.109640, 3.611264
-6.716215, 0.056892, 4.575743
-6.609949, 0.466112, 4.509998
-6.688600, -0.003513, 3.587337
-6.659088, 0.496013, 4.472081
-6.016819, 0.172481, 3.598274
-5.997256, 0.136529, 3.587568
-8.959874, 1.363852, 4.129266
-9.879405, 1.559948, 3.833251
-16.958954, 0.189750, 3.178464
-31.285654, 3.422700, -10.113887
-6.188686, 0.474721, 4.291731
-6.170450, 0.549557, 4.388998
-9.008165, 1.145876, 4.197917
-8.073635, 0.015347, 4.403192
-7.146022, 0.274784, 4.431284
-5.950181, 0.168612, 3.575403
-5.956890, 0.198520, 3.562731
-10.267494, 1.114161, 2.072614
-10.526056, 1.030528, 1.738386
-10.538332, 1.294165, 1.900603
-13.260767, 1.901592, 1.187580
-35.053200, 23.816439, -35.648666
-8.086085, 0.309578, 4.440021
-6.443745, 0.576976, 4.533105
-13.174673, 0.701063, 1.802663
-12.772537, 1.390596, 2.154724
-5.954878, 0.530132, 4.419959
-25.341206, 4.116272, -7.755667
-26.323446, 4.763747, -8.248376
-27.733809, 4.292928, -7.488337
-9.275877, 0.267252, 4.125572
-9.727970, 1.427674, 2.638086
-6.191693, 0.111520, 3.591161
-6.593307, 0.229866, 4.743572
-6.683344, 0.686508, 4.450237
-6.857909, -0.305460, 4.781889
-5.969316, 0.345878, 3.599397
83.978180, 89.204025, -210.198380
-11.826085, 2.315871, 3.492670
-7.765277, 0.563942, 4.724788
-8.587779, 0.545389, 4.249689
-8.449706, 1.012589, 4.654906
-25.870260, 4.303672, -8.021839
-30.042368, 6.659769, -9.932569
-29.346533, 3.411262, -10.224423
-6.498048, 0.431770, 4.452478
-6.500003, -0.168369, 3.576207
-8.327152, 0.277613, 4.240466
-9.948791, 1.581604, 4.005146
-14.274381, 3.638202, 1.739839
-12.078488, 0.708026, 2.992035
-12.175596, 1.595021, 2.554209
-11.909140, 0.802746, 3.038648
-11.588148, 0.254268, 2.641292
-13.275187, 3.334993, 2.186438
-6.445516, 0.537840, 4.529479
-5.722492, 0.459892, 4.352048
-6.285402, 0.077977, 3.609574
-6.507694, 0.199172, 4.740495
-31.170095, 3.952693, -13.531989
-6.192449, 0.549701, 4.646336
-29.686298, 3.713459, -9.280832
-26.324326, 3.818666, -8.568470
-29.388039, 5.313334, -9.502011
-29.373705, 4.974936, -9.594912
-29.854948, 5.536829, -9.758344
-28.821259, 4.577612, -9.160312
-5.781785, 0.094849, 3.519799
-5.986562, 0.147690, 3.568628
-7.966743, -0.353245, 5.119633
-6.234924, 0.413023, 4.576129
-6.515373, 0.609274, 4.451056
-15.154282, 4.155186, 1.262724
-10.867681, 1.134229, 1.456834
-15.688103, 4.657073, -0.235674
-9.848500, 1.817870, 4.183695
-5.977354, 0.271508, 3.573874
-7.799124, -0.231009, 5.013808
-6.163919, 0.403078, 4.592797
-5.972510, 0.538100, 4.435130
-6.496637, 0.690916, 3.731092
-7.523873, 0.642753, 4.953612
-10.662681, 0.845095, 4.032133
-11.533561, 0.363920, 2.764585
-21.672508, 2.302674, -5.153291
-6.799246, 0.460566, 3.652396
-6.927124, 0.525362, 4.447905
-6.814856, 0.238292, 4.650733
-7.152791, 0.708540, 4.384384
-7.089580, 0.713607, 4.539752
-7.604220, 0.281151, 4.883041
-8.830327, 0.122983, 4.071377
-9.077943, 0.912955, 4.193947
-6.858238, 0.505586, 3.662275
-6.187276, 0.466253, 4.549752
-6.623820, 0.686982, 3.834810
-6.062171, 0.502086, 3.514841
-6.151206, 0.059476, 3.525429
-8.343438, -0.134153, 4.282263
-16.847609, 0.144840, 2.301885
-8.881233, -0.167870, 4.095529
-7.139418, 0.418337, 4.494113
-11.796124, -0.335497, 3.003764
-11.870307, 1.160996, 2.799607
-13.793450, 2.321334, 1.748110
-38.491360, 12.772843, -37.281731
-34.146004, 14.158299, -30.056011
-30.886900, 4.339267, -11.517443
-32.997055, 11.339705, -19.231766
-26.074942, 6.813013, -7.260322
-29.746115, 4.188942, -9.335846
-30.652336, 3.896898, -10.020657
-30.471409, 7.403887, -10.244146
-29.117559, 5.320905, -9.824997
-7.420035, -0.112215, 4.559326
-8.009056, -0.316213, 4.598646
-10.969291, 1.496751, 3.148963
-8.113147, 0.206683, 4.391410
-10.831494, 0.110388, 2.938781
-12.512035, 1.457036, 3.442546
-13.660224, 3.431314, 2.177528
-12.561794, 0.153390, 3.146446
-7.776266, 0.047009, 5.024216
-7.104676, 0.401448, 4.495433
-6.999792, 0.315895, 4.400908
-7.693838, 0.116538, 4.860998
-7.292423, 0.554378, 4.949728
-7.927630, 0.195681, 4.869528
43.984249, 50.615196, -105.939560
48.530087, 71.854935, -197.019852
89.611641, 117.771561, -308.362549
-6.660293, 0.815216, 4.571331
-5.826081, 0.126974, 3.519492
-5.856750, 0.504153, 4.427559
-6.360604, 0.077120, 4.690194
-6.061673, 0.659268, 4.398712
-6.331082, -0.123984, 4.655847
-6.424898, 0.087731, 3.612896
-7.992504, -0.099965, 5.129731
-12.554146, 0.631263, 2.087201
-15.255365, 4.547821, -0.359405
-14.182976, 0.670189, 1.245406
-11.849373, 1.800213, 1.578703
-11.655811, 1.807667, 2.986555
-10.950599, 2.120901, 1.505902
-11.667985, 1.442819, 2.901385
-13.041166, 1.095682, 3.185448
-13.735765, 2.054621, 1.693078
-12.352183, 2.338593, 3.479680
-6.213046, 0.480265, 4.308088
-5.941733, 0.137180, 3.549376
-6.241043, 0.256480, 3.607234
-7.174486, -0.307610, 4.831322
51.788136, 74.157333, -112.193954
-29.346039, 5.586335, -9.783001
-27.717768, 4.973201, -7.784659
-26.202490, 3.917212, -8.604724
-27.853781, 4.172746, -7.624480
-5.895014, 0.461956, 3.554650
-14.149997, 0.682820, 0.927148
-11.918194, 0.537293, 2.532573
-13.288846, 3.013140, 2.241119
-7.998196, 0.209320, 4.473642
-17.481293, -0.254666, 3.342699
-8.000003, -0.000466, 4.424662
-7.997046, 0.393853, 4.398892
-8.142415, 0.319765, 4.681457
-6.182910, 0.126880, 3.636028
-6.772751, 0.563636, 4.416331
-6.109364, -0.017333, 4.596021
-5.608533, 0.494009, 4.353705
-5.753736, 0.639790, 4.302029
-5.624165, 0.498927, 4.365026
-5.772314, 0.645994, 4.311842
-6.671527, 0.171592, 3.722931
-6.749887, 0.439918, 3.658854
-6.608758, 0.675422, 3.823920
-7.941993, 0.372222, 5.124384
-6.207549, 0.317204, 4.606761
-5.800143, 0.666550, 4.269962
-6.310143, 0.337539, 4.674298
-5.953047, 0.075978, 3.343761
-5.424725, 0.361894, 3.471047
-5.798690, 0.066978, 3.365439
-5.996167, -0.052315, 4.556096
-6.477008, 0.649543, 3.803438
-5.622964, 0.528517, 4.325853
-6.059217, 0.656401, 3.739466
-14.101390, 0.669741, 0.824986
-5.980032, -0.144856, 3.260225
-6.136079, 0.351643, 4.599992
-5.996910, 0.425430, 4.632866
-6.011733, 0.745045, 3.804333
-11.951034, 0.089698, 2.572563
-9.281044, 1.383203, 4.190822
-6.810884, -0.267789, 4.812026
-6.798652, 0.902179, 3.914504
-7.768276, 0.870442, 3.793400
-5.988875, 0.670726, 4.430656
-5.972172, 0.671957, 4.402336
-6.487700, 0.238284, 4.746284
-7.879631, -0.764221, 5.366301
-6.851994, 0.784861, 4.438099
-5.951531, 0.070357, 4.543033
-5.893780, 0.054414, 4.573371
-6.395964, 0.898206, 4.413915
-6.020039, 0.635140, 4.350512
-12.774303, 0.320684, 1.901008
-11.868628, 0.259962, 2.385025
-9.773246, 1.077888, 4.129391
-13.528584, 2.035305, 3.854623
-9.028499, 0.995891, 4.228870
-9.158664, 0.948023, 4.205533
-8.606596, 0.115972, 4.183025
-32.230637, 16.867140, -28.610003
-32.022999, 4.917900, -16.036226
-7.951295, 0.357201, 4.384418
-8.262856, 0.076458, 4.262231
-11.085472, 0.079685, 2.877171
-8.673806, 1.318634, 4.303613
-14.804003, 3.817325, 1.416205
-14.357080, 0.655930, 0.304148
-8.062925, 0.080511, 5.074740
-36.539310, 9.836450, -19.850292
-8.752971, 0.784891, 4.297132
-8.893107, 0.032957, 4.129406
-7.022327, -0.474181, 4.973351
-11.781216, -0.029681, 3.692533
-8.832288, 0.143910, 4.070948
-10.916029, 0.134564, 2.951637
-8.630874, 0.372316, 4.240310
-8.668235, 0.233931, 4.133326
-8.037541, 0.546129, 3.572271
-8.817679, 1.162769, 4.385406
-9.130761, 1.408411, 4.153421
-5.979185, -0.018317, 3.492053
-5.799184, 0.005157, 3.451205
-6.876793, 0.706211, 4.426862
-6.823408, 0.419299, 4.674964
-6.814361, 0.694690, 4.404347
-8.799711, 0.051603, 4.125299
-8.970113, 0.144371, 4.080648
-8.986427, 0.139853, 4.058687
-6.233027, 0.284298, 3.636670
-6.803869, 0.494455, 4.487286
-6.785001, 0.331513, 4.649141
-7.007973, 0.385853, 4.366001
-8.552587, -0.345410, 4.122489
-6.535240, -0.114729, 4.710824
-6.151222, 0.541976, 4.378029
-6.246837, 0.485095, 4.282156
-6.635698, 0.281114, 4.772331
-6.751174, 0.300414, 4.849853
-11.523523, 1.351500, 2.931958
-12.791565, 2.033803, 2.261741
-12.443695, 2.279245, 3.481596
-12.550457, 1.298552, 3.881359
-29.401876, 4.197809, -9.490051
-26.724237, 4.314994, -8.789103
-26.664215, 4.284905, -8.699208
-6.219404, 0.398109, 4.598727
-6.093629, 0.646204, 3.632088
-5.633430, 0.489730, 4.355502
-6.373790, 0.934245, 4.323990
-6.244236, 0.408112, 4.618479
-26.222006, 3.581567, -8.513135
-26.288677, 4.441296, -8.359250
-27.597021, 4.552983, -7.807095
-28.852806, 4.353552, -9.058026
27.979097, 42.767857, -191.418381
-12.584167, 0.195967, 3.048806
-26.223551, 4.744203, -5.914873
